ply
format ascii 1.0
element vertex 1304
property float x
property float y
property float z
property float nx
property float ny
property float nz
end_header
-0.0650627 0.124519 0.0437477 0 0 0 
-0.0647776 0.124515 0.0432646 0 0 0 
-0.0644242 0.124518 0.0428887 0 0 0 
-0.0640027 0.124525 0.04262 0 0 0 
-0.0636493 0.124526 0.042244 0 0 0 
-0.0632278 0.124533 0.0419753 0 0 0 
-0.0628062 0.12454 0.0417065 0 0 0 
-0.0623846 0.124547 0.0414377 0 0 0 
-0.0619631 0.124554 0.041169 0 0 0 
-0.0614733 0.124567 0.0410073 0 0 0 
-0.0609835 0.124579 0.0408457 0 0 0 
-0.0604937 0.124591 0.0406841 0 0 0 
-0.0600722 0.124598 0.0404153 0 0 0 
-0.0596506 0.124605 0.0401465 0 0 0 
-0.059229 0.124612 0.0398778 0 0 0 
-0.0588757 0.124614 0.0395019 0 0 0 
-0.0584541 0.124621 0.0392331 0 0 0 
-0.0581008 0.124623 0.0388572 0 0 0 
-0.0577474 0.124624 0.0384813 0 0 0 
-0.0573259 0.124631 0.0382125 0 0 0 
-0.0570408 0.124628 0.0377294 0 0 0 
-0.0566875 0.124629 0.0373535 0 0 0 
-0.0562659 0.124636 0.0370847 0 0 0 
-0.0559126 0.124638 0.0367088 0 0 0 
-0.0555592 0.12464 0.0363329 0 0 0 
-0.0552059 0.124641 0.035957 0 0 0 
-0.0548525 0.124643 0.0355811 0 0 0 
-0.0544992 0.124644 0.0352052 0 0 0 
-0.0541458 0.124647 0.0348293 0 0 0 
-0.0537925 0.124648 0.0344533 0 0 0 
-0.0535074 0.124644 0.0339703 0 0 0 
-0.0530859 0.124651 0.0337015 0 0 0 
-0.0527325 0.124653 0.0333256 0 0 0 
-0.0523792 0.124655 0.0329497 0 0 0 
-0.0520258 0.124656 0.0325738 0 0 0 
-0.0517408 0.124653 0.0320906 0 0 0 
-0.0513874 0.124654 0.0317148 0 0 0 
-0.0511023 0.124651 0.0312317 0 0 0 
-0.0508172 0.124647 0.0307487 0 0 0 
-0.050532 0.124644 0.0302656 0 0 0 
-0.0502469 0.12464 0.0297826 0 0 0 
-0.0499618 0.124636 0.0292994 0 0 0 
-0.0497449 0.124628 0.0287093 0 0 0 
-0.049528 0.124618 0.0281191 0 0 0 
-0.0493111 0.124609 0.0275288 0 0 0 
-0.0489578 0.12461 0.0271529 0 0 0 
-0.0487409 0.124602 0.0265627 0 0 0 
-0.0484558 0.124598 0.0260797 0 0 0 
-0.0482389 0.12459 0.0254894 0 0 0 
-0.0479538 0.124585 0.0250064 0 0 0 
-0.0476004 0.124587 0.0246305 0 0 0 
-0.0473835 0.124578 0.0240403 0 0 0 
-0.0470302 0.12458 0.0236644 0 0 0 
-0.0467451 0.124576 0.0231813 0 0 0 
-0.0465282 0.124568 0.0225911 0 0 0 
-0.0462431 0.124563 0.022108 0 0 0 
-0.0457533 0.124576 0.0219464 0 0 0 
-0.0454682 0.124573 0.0214634 0 0 0 
-0.0447055 0.124606 0.0217303 0 0 0 
-0.0437382 0.124655 0.0223187 0 0 0 
-0.0426344 0.124716 0.0231214 0 0 0 
-0.0420081 0.124739 0.0231741 0 0 0 
-0.0414501 0.124756 0.0231196 0 0 0 
-0.0406193 0.124796 0.0234937 0 0 0 
-0.0401294 0.124809 0.0233321 0 0 0 
-0.0395714 0.124826 0.0232776 0 0 0 
-0.0390134 0.124844 0.0232231 0 0 0 
-0.0387283 0.12484 0.0227401 0 0 0 
-0.0381703 0.124858 0.0226856 0 0 0 
-0.0377487 0.124865 0.0224168 0 0 0 
-0.0371907 0.124882 0.0223623 0 0 0 
-0.0368374 0.124883 0.0219864 0 0 0 
-0.0363476 0.124896 0.0218248 0 0 0 
-0.0359261 0.124903 0.021556 0 0 0 
-0.0355045 0.12491 0.0212873 0 0 0 
-0.0350147 0.124923 0.0211256 0 0 0 
-0.0347296 0.124918 0.0206426 0 0 0 
-0.0343763 0.124921 0.0202667 0 0 0 
-0.0340229 0.124922 0.0198908 0 0 0 
-0.0336696 0.124924 0.0195149 0 0 0 
-0.0331798 0.124936 0.0193532 0 0 0 
-0.0328264 0.124938 0.0189773 0 0 0 
-0.0326096 0.124929 0.0183871 0 0 0 
-0.0321198 0.124942 0.0182255 0 0 0 
-0.0315618 0.124959 0.018171 0 0 0 
-0.0314813 0.12494 0.0173665 0 0 0 
-0.0309233 0.124957 0.017312 0 0 0 
-0.0204429 0.125511 0.0244632 0 0 0 
-0.0156414 0.125714 0.0292092 0 0 0 
-0.0143839 0.125764 0.0302528 0 0 0 
-0.0135122 0.125795 0.0306907 0 0 0 
-0.0127691 0.125818 0.0309266 0 0 0 
-0.0120903 0.125838 0.0310617 0 0 0 
-0.0113472 0.125862 0.0312977 0 0 0 
-0.0105398 0.125889 0.0316346 0 0 0 
-0.00992534 0.125906 0.0316686 0 0 0 
-0.00918221 0.12593 0.0319047 0 0 0 
-0.0083105 0.12596 0.0323426 0 0 0 
-0.00763174 0.12598 0.0324776 0 0 0 
-0.00695292 0.126 0.0326126 0 0 0 
-0.00633847 0.126017 0.0326467 0 0 0 
-0.00578828 0.126031 0.0325798 0 0 0 
-0.0050452 0.126055 0.0328158 0 0 0 
-0.00455932 0.126064 0.032648 0 0 0 
-0.00400914 0.126079 0.0325812 0 0 0 
-0.003459 0.126092 0.0325142 0 0 0 
-0.00290881 0.126106 0.0324474 0 0 0 
-0.00222999 0.126126 0.0325825 0 0 0 
-0.00167985 0.126139 0.0325155 0 0 0 
-0.00112966 0.126153 0.0324487 0 0 0 
-0.000708101 0.12616 0.0321799 0 0 0 
-0.00015791 0.126173 0.0321131 0 0 0 
0.000392227 0.126187 0.0320461 0 0 0 
0.000942408 0.126202 0.0319793 0 0 0 
0.0014926 0.126215 0.0319125 0 0 0 
0.00217137 0.126235 0.0320475 0 0 0 
0.00272156 0.126249 0.0319806 0 0 0 
0.00327175 0.126262 0.0319138 0 0 0 
0.00395051 0.126282 0.0320488 0 0 0 
0.00456501 0.126299 0.0320829 0 0 0 
0.00505089 0.12631 0.0319151 0 0 0 
0.00560102 0.126324 0.0318482 0 0 0 
0.00621553 0.12634 0.0318823 0 0 0 
0.00670141 0.126351 0.0317145 0 0 0 
0.00712297 0.126358 0.0314457 0 0 0 
0.00760878 0.126368 0.0312778 0 0 0 
0.00815898 0.126382 0.031211 0 0 0 
0.00870917 0.126396 0.0311441 0 0 0 
0.00919505 0.126405 0.0309763 0 0 0 
0.00968092 0.126416 0.0308085 0 0 0 
0.0101025 0.126423 0.0305398 0 0 0 
0.0105883 0.126433 0.0303719 0 0 0 
0.0110099 0.12644 0.0301031 0 0 0 
0.0114314 0.126447 0.0298343 0 0 0 
0.011853 0.126454 0.0295656 0 0 0 
0.0122103 0.126458 0.0291959 0 0 0 
0.0125675 0.126461 0.0288262 0 0 0 
0.0129891 0.126468 0.0285574 0 0 0 
0.0133463 0.126473 0.0281877 0 0 0 
0.0136393 0.126473 0.027717 0 0 0 
0.013868 0.12647 0.0271454 0 0 0 
0.0141609 0.12647 0.0266747 0 0 0 
0.0143895 0.126467 0.0261031 0 0 0 
0.0146825 0.126468 0.0256325 0 0 0 
0.0149754 0.126468 0.0251618 0 0 0 
0.015204 0.126465 0.0245901 0 0 0 
0.0154327 0.126463 0.0240185 0 0 0 
0.0156613 0.126459 0.0234469 0 0 0 
0.0160186 0.126463 0.0230772 0 0 0 
0.0163116 0.126463 0.0226065 0 0 0 
0.0166045 0.126464 0.0221358 0 0 0 
0.0170261 0.126471 0.0218671 0 0 0 
0.0172547 0.126468 0.0212954 0 0 0 
0.0174834 0.126465 0.0207238 0 0 0 
0.0178406 0.126469 0.0203541 0 0 0 
0.0177477 0.12645 0.0192777 0 0 0 
0.0180406 0.12645 0.018807 0 0 0 
0.0183336 0.126451 0.0183364 0 0 0 
0.0181121 0.126424 0.0170581 0 0 0 
0.0182765 0.126418 0.0163856 0 0 0 
0.0183764 0.126408 0.015612 0 0 0 
0.0186051 0.126405 0.0150404 0 0 0 
0.0187694 0.126399 0.0143678 0 0 0 
0.0186766 0.12638 0.0132915 0 0 0 
0.0184551 0.126354 0.0120132 0 0 0 
0.017912 0.126311 0.0102301 0 0 0 
0.0182693 0.126315 0.00986041 0 0 0 
0.0182407 0.126298 0.00888499 0 0 0 
0.0173761 0.126239 0.00659722 0 0 0 
0.0179906 0.126257 0.00663134 0 0 0 
0.0178334 0.126234 0.00545399 0 0 0 
0.0179978 0.126227 0.00478145 0 0 0 
-0.0934988 0.124278 0.0442526 0 0 0 
-0.0921221 0.12436 0.0454839 0 0 0 
-0.0911548 0.124409 0.0460722 0 0 0 
-0.0887548 0.124568 0.0489107 0 0 0 
-0.0884014 0.124569 0.0485348 0 0 0 
-0.0865472 0.124687 0.050516 0 0 0 
-0.085307 0.124758 0.051533 0 0 0 
-0.0843396 0.124807 0.0521214 0 0 0 
-0.083577 0.12484 0.0523883 0 0 0 
-0.0828143 0.124873 0.0526552 0 0 0 
-0.0821881 0.124896 0.0527079 0 0 0 
-0.0814936 0.124924 0.0528677 0 0 0 
-0.0809356 0.124942 0.0528132 0 0 0 
-0.0803094 0.124965 0.052866 0 0 0 
-0.0797514 0.124982 0.0528115 0 0 0 
-0.0791934 0.125 0.052757 0 0 0 
-0.0784989 0.125028 0.0529167 0 0 0 
-0.0779409 0.125045 0.0528623 0 0 0 
-0.0773829 0.125063 0.0528078 0 0 0 
-0.0767567 0.125085 0.0528605 0 0 0 
-0.0761987 0.125102 0.052806 0 0 0 
-0.0756407 0.12512 0.0527515 0 0 0 
-0.0750145 0.125143 0.0528041 0 0 0 
-0.0745246 0.125156 0.0526426 0 0 0 
-0.0740348 0.125168 0.0524809 0 0 0 
-0.0735451 0.12518 0.0523193 0 0 0 
-0.0730553 0.125192 0.0521577 0 0 0 
-0.0726337 0.125199 0.0518889 0 0 0 
-0.0721439 0.125212 0.0517273 0 0 0 
-0.0717906 0.125213 0.0513514 0 0 0 
-0.071369 0.12522 0.0510826 0 0 0 
-0.0709475 0.125227 0.0508138 0 0 0 
-0.0705941 0.12523 0.0504379 0 0 0 
-0.0701726 0.125237 0.0501692 0 0 0 
-0.0698192 0.125238 0.0497933 0 0 0 
-0.0694659 0.12524 0.0494174 0 0 0 
-0.0690443 0.125247 0.0491486 0 0 0 
-0.068691 0.125248 0.0487726 0 0 0 
-0.0684059 0.125245 0.0482895 0 0 0 
-0.0680526 0.125246 0.0479136 0 0 0 
-0.0676992 0.125248 0.0475377 0 0 0 
-0.0674141 0.125245 0.0470547 0 0 0 
-0.0670607 0.125246 0.0466788 0 0 0 
-0.0667756 0.125243 0.0461957 0 0 0 
-0.0664905 0.125239 0.0457127 0 0 0 
-0.0662054 0.125236 0.0452296 0 0 0 
-0.0659203 0.125232 0.0447465 0 0 0 
-0.0656352 0.125229 0.0442635 0 0 0 
-0.0652818 0.125231 0.0438876 0 0 0 
-0.0649967 0.125228 0.0434046 0 0 0 
-0.0647116 0.125224 0.0429215 0 0 0 
-0.06429 0.125231 0.0426528 0 0 0 
-0.0639367 0.125233 0.0422768 0 0 0 
-0.0635834 0.125234 0.0419009 0 0 0 
-0.0631618 0.125241 0.0416321 0 0 0 
-0.062672 0.125254 0.0414705 0 0 0 
-0.0622505 0.125261 0.0412017 0 0 0 
-0.0618289 0.125268 0.0409329 0 0 0 
-0.0613391 0.12528 0.0407714 0 0 0 
-0.0608493 0.125292 0.0406097 0 0 0 
-0.0604277 0.125299 0.040341 0 0 0 
-0.059938 0.125312 0.0401793 0 0 0 
-0.0595846 0.125313 0.0398034 0 0 0 
-0.0591631 0.12532 0.0395347 0 0 0 
-0.0587415 0.125327 0.0392659 0 0 0 
-0.0583882 0.12533 0.03889 0 0 0 
-0.0580349 0.125331 0.038514 0 0 0 
-0.0576133 0.125338 0.0382452 0 0 0 
-0.0573282 0.125334 0.0377622 0 0 0 
-0.0569748 0.125336 0.0373863 0 0 0 
-0.0566215 0.125338 0.0370104 0 0 0 
-0.0561999 0.125345 0.0367416 0 0 0 
-0.0558466 0.125346 0.0363657 0 0 0 
-0.055425 0.125353 0.0360969 0 0 0 
-0.0550717 0.125356 0.035721 0 0 0 
-0.0547866 0.125352 0.035238 0 0 0 
-0.054365 0.125359 0.0349692 0 0 0 
-0.0540116 0.12536 0.0345933 0 0 0 
-0.0536583 0.125363 0.0342174 0 0 0 
-0.053305 0.125364 0.0338414 0 0 0 
-0.0528834 0.125371 0.0335727 0 0 0 
-0.0525301 0.125373 0.0331968 0 0 0 
-0.052245 0.12537 0.0327137 0 0 0 
-0.0518916 0.125371 0.0323378 0 0 0 
-0.0516065 0.125368 0.0318548 0 0 0 
-0.0513214 0.125364 0.0313717 0 0 0 
-0.0510363 0.125361 0.0308887 0 0 0 
-0.050683 0.125362 0.0305127 0 0 0 
-0.0503978 0.125358 0.0300296 0 0 0 
-0.0501809 0.12535 0.0294395 0 0 0 
-0.0498958 0.125347 0.0289564 0 0 0 
-0.0496789 0.125338 0.0283663 0 0 0 
-0.0493938 0.125334 0.0278831 0 0 0 
-0.0491769 0.125326 0.027293 0 0 0 
-0.0488918 0.125322 0.0268099 0 0 0 
-0.0486749 0.125313 0.0262197 0 0 0 
-0.048458 0.125304 0.0256295 0 0 0 
-0.0481729 0.125301 0.0251464 0 0 0 
-0.0478878 0.125297 0.0246634 0 0 0 
-0.0476709 0.125289 0.0240732 0 0 0 
-0.0473857 0.125285 0.0235902 0 0 0 
-0.0471689 0.125276 0.0229999 0 0 0 
-0.046952 0.125268 0.0224097 0 0 0 
-0.0467351 0.125259 0.0218196 0 0 0 
-0.0463817 0.12526 0.0214436 0 0 0 
-0.0462331 0.125246 0.0207463 0 0 0 
-0.0458115 0.125253 0.0204775 0 0 0 
-0.0453218 0.125266 0.0203159 0 0 0 
-0.0449002 0.125273 0.0200471 0 0 0 
-0.0433188 0.12537 0.0215998 0 0 0 
-0.042829 0.125381 0.0214382 0 0 0 
-0.0417253 0.125442 0.0222409 0 0 0 
-0.0411673 0.125459 0.0221864 0 0 0 
-0.040541 0.125481 0.022239 0 0 0 
-0.0400513 0.125494 0.0220774 0 0 0 
-0.0395614 0.125506 0.0219158 0 0 0 
-0.0390034 0.125523 0.0218613 0 0 0 
-0.0385136 0.125536 0.0216997 0 0 0 
-0.0381603 0.125537 0.0213238 0 0 0 
-0.037807 0.12554 0.0209479 0 0 0 
-0.0371807 0.125562 0.0210005 0 0 0 
-0.0368274 0.125564 0.0206246 0 0 0 
-0.0364058 0.125571 0.0203558 0 0 0 
-0.0359161 0.125583 0.0201942 0 0 0 
-0.0355627 0.125585 0.0198183 0 0 0 
-0.0352094 0.125586 0.0194424 0 0 0 
-0.0347878 0.125593 0.0191736 0 0 0 
-0.0345027 0.12559 0.0186906 0 0 0 
-0.0342858 0.125582 0.0181003 0 0 0 
-0.0342054 0.125562 0.0172959 0 0 0 
-0.0339202 0.125559 0.0168128 0 0 0 
-0.0336352 0.125555 0.0163297 0 0 0 
-0.0337593 0.12552 0.0152039 0 0 0 
-0.0162748 0.126383 0.027768 0 0 0 
-0.0159819 0.126384 0.0272973 0 0 0 
-0.0148529 0.126427 0.0281391 0 0 0 
-0.0137883 0.126465 0.0288798 0 0 0 
-0.0126594 0.126509 0.0297215 0 0 0 
-0.011659 0.126545 0.0303614 0 0 0 
-0.0110445 0.126562 0.0303954 0 0 0 
-0.0101728 0.126591 0.0308333 0 0 0 
-0.0096226 0.126605 0.0307664 0 0 0 
-0.00881515 0.126631 0.0311035 0 0 0 
-0.00807208 0.126655 0.0313394 0 0 0 
-0.00739324 0.126674 0.0314745 0 0 0 
-0.00671448 0.126694 0.0316095 0 0 0 
-0.00597135 0.126718 0.0318455 0 0 0 
-0.00535689 0.126734 0.0318796 0 0 0 
-0.0048067 0.126748 0.0318127 0 0 0 
-0.00438514 0.126755 0.0315439 0 0 0 
-0.00389927 0.126765 0.0313761 0 0 0 
-0.00334908 0.126779 0.0313093 0 0 0 
-0.00267026 0.126799 0.0314444 0 0 0 
-0.00212012 0.126812 0.0313775 0 0 0 
-0.00150561 0.126829 0.0314116 0 0 0 
-0.000955416 0.126842 0.0313447 0 0 0 
-0.000405225 0.126856 0.0312779 0 0 0 
0.000209222 0.126873 0.0313119 0 0 0 
0.000759413 0.126886 0.0312451 0 0 0 
0.00124529 0.126896 0.0310773 0 0 0 
0.0018598 0.126913 0.0311114 0 0 0 
0.00240993 0.126927 0.0310445 0 0 0 
0.00302444 0.126943 0.0310786 0 0 0 
0.00363894 0.126961 0.0311127 0 0 0 
0.00412483 0.12697 0.0309449 0 0 0 
0.0046107 0.126981 0.0307771 0 0 0 
0.00528946 0.127001 0.0309121 0 0 0 
0.00583967 0.127014 0.0308452 0 0 0 
0.00645417 0.127031 0.0308793 0 0 0 
0.00694005 0.127041 0.0307115 0 0 0 
0.00742592 0.127051 0.0305437 0 0 0 
0.00784748 0.127058 0.030275 0 0 0 
0.00839762 0.127072 0.030208 0 0 0 
0.0088835 0.127082 0.0300402 0 0 0 
0.00936937 0.127092 0.0298724 0 0 0 
0.00979093 0.127099 0.0296037 0 0 0 
0.0102125 0.127106 0.0293349 0 0 0 
0.0106341 0.127114 0.0290661 0 0 0 
0.0110556 0.127121 0.0287973 0 0 0 
0.0114129 0.127124 0.0284276 0 0 0 
0.0117701 0.127128 0.0280579 0 0 0 
0.0120631 0.127129 0.0275873 0 0 0 
0.0124203 0.127132 0.0272175 0 0 0 
0.0127133 0.127132 0.0267469 0 0 0 
0.0130062 0.127133 0.0262762 0 0 0 
0.0133635 0.127137 0.0259064 0 0 0 
0.0136564 0.127138 0.0254357 0 0 0 
0.0140137 0.127142 0.0250661 0 0 0 
0.014178 0.127136 0.0243935 0 0 0 
0.0144066 0.127133 0.0238218 0 0 0 
0.0146995 0.127133 0.0233511 0 0 0 
0.0149925 0.127134 0.0228805 0 0 0 
0.0152855 0.127134 0.0224098 0 0 0 
0.0155784 0.127135 0.0219391 0 0 0 
0.0159356 0.127139 0.0215694 0 0 0 
0.0162286 0.127139 0.0210987 0 0 0 
0.0163929 0.127133 0.0204262 0 0 0 
0.0166858 0.127134 0.0199555 0 0 0 
0.0165929 0.127115 0.0188791 0 0 0 
0.0168859 0.127115 0.0184084 0 0 0 
0.0169859 0.127106 0.0176348 0 0 0 
0.0166358 0.127074 0.0161547 0 0 0 
0.0170573 0.127081 0.0158859 0 0 0 
0.0172859 0.127078 0.0153143 0 0 0 
0.0175145 0.127076 0.0147426 0 0 0 
0.0176146 0.127066 0.0139691 0 0 0 
0.0172644 0.127034 0.0124889 0 0 0 
0.0174931 0.127032 0.0119173 0 0 0 
0.0173358 0.127009 0.0107399 0 0 0 
0.0167285 0.126964 0.00885589 0 0 0 
0.0165712 0.126943 0.00767855 0 0 0 
0.0163497 0.126917 0.00640024 0 0 0 
0.0166426 0.126918 0.00592955 0 0 0 
0.0170642 0.126925 0.00566078 0 0 0 
-0.0930917 0.125021 0.0444455 0 0 0 
-0.0919197 0.125085 0.0453552 0 0 0 
-0.0890421 0.125279 0.0489436 0 0 0 
-0.0883477 0.125307 0.0491034 0 0 0 
-0.0870393 0.125381 0.0502275 0 0 0 
-0.0855261 0.125471 0.0516729 0 0 0 
-0.084627 0.125515 0.0521542 0 0 0 
-0.0838643 0.125548 0.0524211 0 0 0 
-0.0831016 0.125581 0.0526881 0 0 0 
-0.082339 0.125613 0.052955 0 0 0 
-0.0816445 0.125641 0.0531148 0 0 0 
-0.0810865 0.125659 0.0530604 0 0 0 
-0.0804603 0.125681 0.053113 0 0 0 
-0.0799023 0.125699 0.0530585 0 0 0 
-0.0793443 0.125716 0.053004 0 0 0 
-0.0787863 0.125733 0.0529495 0 0 0 
-0.0782283 0.125751 0.052895 0 0 0 
-0.0776703 0.125768 0.0528405 0 0 0 
-0.0771805 0.12578 0.0526789 0 0 0 
-0.0766225 0.125798 0.0526245 0 0 0 
-0.0759962 0.125821 0.0526771 0 0 0 
-0.0755065 0.125833 0.0525155 0 0 0 
-0.0749485 0.12585 0.052461 0 0 0 
-0.0744587 0.125863 0.0522994 0 0 0 
-0.0739007 0.125879 0.0522449 0 0 0 
-0.0734791 0.125886 0.0519761 0 0 0 
-0.0729893 0.125899 0.0518145 0 0 0 
-0.0725678 0.125906 0.0515457 0 0 0 
-0.0721462 0.125913 0.0512769 0 0 0 
-0.0717247 0.12592 0.0510082 0 0 0 
-0.0713713 0.125921 0.0506322 0 0 0 
-0.0709497 0.125928 0.0503635 0 0 0 
-0.0705282 0.125936 0.0500947 0 0 0 
-0.0701749 0.125938 0.0497188 0 0 0 
-0.0698215 0.12594 0.0493429 0 0 0 
-0.0693999 0.125947 0.0490741 0 0 0 
-0.0690466 0.125948 0.0486982 0 0 0 
-0.0686933 0.125951 0.0483223 0 0 0 
-0.0683399 0.125952 0.0479464 0 0 0 
-0.0680548 0.125948 0.0474634 0 0 0 
-0.0677015 0.125951 0.0470875 0 0 0 
-0.0674163 0.125947 0.0466044 0 0 0 
-0.067063 0.125949 0.0462284 0 0 0 
-0.0667779 0.125946 0.0457454 0 0 0 
-0.0664928 0.125943 0.0452624 0 0 0 
-0.0662077 0.125939 0.0447793 0 0 0 
-0.0658543 0.12594 0.0444034 0 0 0 
-0.0656374 0.125932 0.0438133 0 0 0 
-0.0653523 0.125929 0.0433302 0 0 0 
-0.0649989 0.125931 0.0429543 0 0 0 
-0.0646456 0.125932 0.0425784 0 0 0 
-0.064224 0.125939 0.0423096 0 0 0 
-0.0638708 0.125942 0.0419337 0 0 0 
-0.0634492 0.125949 0.0416649 0 0 0 
-0.0630276 0.125956 0.0413961 0 0 0 
-0.0626061 0.125963 0.0411273 0 0 0 
-0.0621162 0.125974 0.0409658 0 0 0 
-0.0616265 0.125987 0.0408042 0 0 0 
-0.0612049 0.125994 0.0405354 0 0 0 
-0.0607151 0.126006 0.0403738 0 0 0 
-0.0602935 0.126013 0.040105 0 0 0 
-0.059872 0.12602 0.0398362 0 0 0 
-0.0594504 0.126027 0.0395675 0 0 0 
-0.0590289 0.126034 0.0392987 0 0 0 
-0.0586755 0.126036 0.0389228 0 0 0 
-0.0583222 0.126038 0.0385469 0 0 0 
-0.0579689 0.12604 0.0381709 0 0 0 
-0.0576155 0.126041 0.037795 0 0 0 
-0.0572622 0.126043 0.0374191 0 0 0 
-0.0569089 0.126045 0.0370432 0 0 0 
-0.0565555 0.126047 0.0366673 0 0 0 
-0.056134 0.126054 0.0363985 0 0 0 
-0.0557124 0.126061 0.0361297 0 0 0 
-0.055359 0.126062 0.0357538 0 0 0 
-0.0550057 0.126064 0.0353779 0 0 0 
-0.0545841 0.126071 0.0351092 0 0 0 
-0.0542308 0.126073 0.0347333 0 0 0 
-0.0538775 0.126075 0.0343574 0 0 0 
-0.0535241 0.126077 0.0339815 0 0 0 
-0.0531026 0.126084 0.0337127 0 0 0 
-0.0527492 0.126086 0.0333368 0 0 0 
-0.0524641 0.126082 0.0328537 0 0 0 
-0.0521108 0.126084 0.0324778 0 0 0 
-0.0517575 0.126086 0.0321018 0 0 0 
-0.0514723 0.126082 0.0316188 0 0 0 
-0.0511872 0.126079 0.0311358 0 0 0 
-0.0509021 0.126076 0.0306527 0 0 0 
-0.050617 0.126073 0.0301697 0 0 0 
-0.0503318 0.126069 0.0296866 0 0 0 
-0.050115 0.12606 0.0290964 0 0 0 
-0.0498981 0.126052 0.0285062 0 0 0 
-0.0495447 0.126054 0.0281303 0 0 0 
-0.0493278 0.126045 0.0275401 0 0 0 
-0.0491109 0.126037 0.02695 0 0 0 
-0.0488258 0.126033 0.0264669 0 0 0 
-0.0486089 0.126025 0.0258767 0 0 0 
-0.048392 0.126016 0.0252865 0 0 0 
-0.0481069 0.126013 0.0248034 0 0 0 
-0.04789 0.126004 0.0242133 0 0 0 
-0.0476731 0.125996 0.0236231 0 0 0 
-0.047388 0.125993 0.0231401 0 0 0 
-0.0472393 0.125979 0.0224427 0 0 0 
-0.0470224 0.125971 0.0218525 0 0 0 
-0.0468055 0.125961 0.0212623 0 0 0 
-0.0465887 0.125953 0.020672 0 0 0 
-0.0462353 0.125954 0.0202962 0 0 0 
-0.0458137 0.125961 0.0200275 0 0 0 
-0.0454604 0.125964 0.0196515 0 0 0 
-0.0450389 0.125971 0.0193827 0 0 0 
-0.044549 0.125983 0.0192211 0 0 0 
-0.043991 0.126 0.0191667 0 0 0 
-0.0435695 0.126007 0.0188979 0 0 0 
-0.0426022 0.126056 0.0194862 0 0 0 
-0.0421124 0.126068 0.0193246 0 0 0 
-0.0409404 0.126132 0.0202344 0 0 0 
-0.0401777 0.126165 0.0205013 0 0 0 
-0.0396197 0.126183 0.0204469 0 0 0 
-0.0390617 0.126199 0.0203924 0 0 0 
-0.0386401 0.126206 0.0201236 0 0 0 
-0.0382868 0.126209 0.0197477 0 0 0 
-0.0379334 0.126211 0.0193718 0 0 0 
-0.0375119 0.126218 0.019103 0 0 0 
-0.0370903 0.126225 0.0188343 0 0 0 
-0.0366687 0.126232 0.0185655 0 0 0 
-0.0363154 0.126233 0.0181895 0 0 0 
-0.0358939 0.12624 0.0179207 0 0 0 
-0.035677 0.126232 0.0173306 0 0 0 
-0.0353236 0.126233 0.0169547 0 0 0 
-0.0349703 0.126236 0.0165788 0 0 0 
-0.0347534 0.126227 0.0159886 0 0 0 
-0.0346047 0.126214 0.0152913 0 0 0 
-0.0165511 0.127057 0.025957 0 0 0 
-0.0160653 0.127068 0.0257892 0 0 0 
-0.0146147 0.127126 0.0271357 0 0 0 
-0.0140002 0.127142 0.0271698 0 0 0 
-0.0129355 0.127181 0.0279106 0 0 0 
-0.0114207 0.127241 0.0293581 0 0 0 
-0.0105489 0.127271 0.029796 0 0 0 
-0.00993439 0.127288 0.0298302 0 0 0 
-0.00938419 0.127301 0.0297633 0 0 0 
-0.00870542 0.127321 0.0298983 0 0 0 
-0.00796228 0.127343 0.0301343 0 0 0 
-0.00734777 0.12736 0.0301685 0 0 0 
-0.00660464 0.127383 0.0304045 0 0 0 
-0.00586155 0.127406 0.0306405 0 0 0 
-0.00524704 0.127422 0.0306746 0 0 0 
-0.00463253 0.127439 0.0307087 0 0 0 
-0.00414666 0.127449 0.0305409 0 0 0 
-0.00366078 0.127459 0.0303731 0 0 0 
-0.00311058 0.127473 0.0303062 0 0 0 
-0.00243182 0.127493 0.0304412 0 0 0 
-0.00181731 0.127509 0.0304753 0 0 0 
-0.00126712 0.127523 0.0304085 0 0 0 
-0.000845554 0.12753 0.0301397 0 0 0 
-0.000231043 0.127546 0.0301738 0 0 0 
0.000383469 0.127562 0.030208 0 0 0 
0.000997969 0.127579 0.0302421 0 0 0 
0.00154812 0.127592 0.0301751 0 0 0 
0.00209831 0.127605 0.0301083 0 0 0 
0.0026485 0.127619 0.0300414 0 0 0 
0.00326301 0.127635 0.0300756 0 0 0 
0.00387751 0.127652 0.0301097 0 0 0 
0.00449202 0.127669 0.0301438 0 0 0 
0.00504221 0.127682 0.030077 0 0 0 
0.00546377 0.127689 0.0298082 0 0 0 
0.00601391 0.127703 0.0297413 0 0 0 
0.00656411 0.127715 0.0296744 0 0 0 
0.00704998 0.127726 0.0295066 0 0 0 
0.00760018 0.12774 0.0294398 0 0 0 
0.00802174 0.127747 0.029171 0 0 0 
0.0084433 0.127754 0.0289022 0 0 0 
0.00880055 0.127757 0.0285325 0 0 0 
0.00922211 0.127764 0.0282637 0 0 0 
0.00957935 0.127768 0.027894 0 0 0 
0.00987229 0.127769 0.0274233 0 0 0 
0.0102938 0.127776 0.0271545 0 0 0 
0.0105225 0.127773 0.026583 0 0 0 
0.0110726 0.127787 0.026516 0 0 0 
0.0113656 0.127787 0.0260454 0 0 0 
0.0117872 0.127794 0.0257767 0 0 0 
0.0120801 0.127795 0.025306 0 0 0 
0.0125017 0.127802 0.0250372 0 0 0 
0.0127946 0.127803 0.0245665 0 0 0 
0.0130876 0.127803 0.0240958 0 0 0 
0.0133805 0.127804 0.0236251 0 0 0 
0.0137377 0.127808 0.0232554 0 0 0 
0.0140307 0.127808 0.0227847 0 0 0 
0.0142593 0.127806 0.0222131 0 0 0 
0.0144879 0.127804 0.0216415 0 0 0 
0.0149095 0.127811 0.0213727 0 0 0 
0.0150738 0.127805 0.0207001 0 0 0 
0.0153024 0.127803 0.0201284 0 0 0 
0.0154025 0.127793 0.0193549 0 0 0 
0.0156311 0.127791 0.0187833 0 0 0 
0.0155381 0.127773 0.0177068 0 0 0 
0.0157024 0.127767 0.0170342 0 0 0 
0.0156095 0.127749 0.0159578 0 0 0 
0.0159024 0.127749 0.0154872 0 0 0 
0.0159381 0.127737 0.0146126 0 0 0 
0.0163597 0.127744 0.0143438 0 0 0 
0.015495 0.127688 0.0120559 0 0 0 
0.0157879 0.127688 0.0115853 0 0 0 
0.0162095 0.127695 0.0113166 0 0 0 
0.015795 0.12766 0.00973529 0 0 0 
0.0153805 0.127627 0.00815411 0 0 0 
0.0151589 0.127602 0.00687581 0 0 0 
0.0153876 0.127599 0.00630415 0 0 0 
0.0156162 0.127597 0.0057325 0 0 0 
-0.0916491 0.125816 0.0453338 0 0 0 
-0.0884304 0.126034 0.0494578 0 0 0 
-0.087463 0.126082 0.0500461 0 0 0 
-0.0861546 0.126155 0.0511702 0 0 0 
-0.0849144 0.126223 0.052187 0 0 0 
-0.0842199 0.126251 0.0523469 0 0 0 
-0.0833208 0.126294 0.0528281 0 0 0 
-0.0826264 0.126321 0.0529878 0 0 0 
-0.0819319 0.126349 0.0531476 0 0 0 
-0.0813056 0.126371 0.0532003 0 0 0 
-0.0807476 0.126389 0.0531458 0 0 0 
-0.0801214 0.126411 0.0531984 0 0 0 
-0.0795634 0.126427 0.0531439 0 0 0 
-0.0790736 0.12644 0.0529823 0 0 0 
-0.0785156 0.126458 0.0529278 0 0 0 
-0.0779576 0.126474 0.0528733 0 0 0 
-0.0774679 0.126487 0.0527117 0 0 0 
-0.0769781 0.126499 0.0525501 0 0 0 
-0.07642 0.126516 0.0524956 0 0 0 
-0.0759303 0.126528 0.0523339 0 0 0 
-0.0754405 0.126541 0.0521724 0 0 0 
-0.0748825 0.126557 0.0521179 0 0 0 
-0.0743927 0.12657 0.0519562 0 0 0 
-0.0739029 0.126582 0.0517946 0 0 0 
-0.0734131 0.126594 0.051633 0 0 0 
-0.0729916 0.126601 0.0513642 0 0 0 
-0.0725018 0.126613 0.0512026 0 0 0 
-0.0721484 0.126615 0.0508267 0 0 0 
-0.0717269 0.126622 0.0505579 0 0 0 
-0.0713053 0.126629 0.0502891 0 0 0 
-0.0708838 0.126636 0.0500204 0 0 0 
-0.0705304 0.126638 0.0496445 0 0 0 
-0.0701771 0.12664 0.0492686 0 0 0 
-0.0698237 0.126641 0.0488926 0 0 0 
-0.0694022 0.126648 0.0486239 0 0 0 
-0.0690488 0.126651 0.048248 0 0 0 
-0.0687638 0.126647 0.0477649 0 0 0 
-0.0684104 0.126649 0.047389 0 0 0 
-0.068057 0.126652 0.0470131 0 0 0 
-0.067772 0.126648 0.04653 0 0 0 
-0.0674186 0.126649 0.0461541 0 0 0 
-0.0670653 0.126652 0.0457782 0 0 0 
-0.0668484 0.126644 0.045188 0 0 0 
-0.066495 0.126645 0.0448121 0 0 0 
-0.0662099 0.126642 0.0443291 0 0 0 
-0.0659248 0.126639 0.0438461 0 0 0 
-0.0656396 0.126635 0.043363 0 0 0 
-0.0653545 0.126632 0.04288 0 0 0 
-0.064933 0.126639 0.0426112 0 0 0 
-0.0645796 0.126641 0.0422353 0 0 0 
-0.0642263 0.126644 0.0418593 0 0 0 
-0.0637365 0.126655 0.0416978 0 0 0 
-0.0633149 0.126662 0.041429 0 0 0 
-0.0629617 0.126665 0.041053 0 0 0 
-0.0624718 0.126676 0.0408915 0 0 0 
-0.061982 0.126688 0.0407298 0 0 0 
-0.0615605 0.126695 0.0404611 0 0 0 
-0.0610707 0.126708 0.0402994 0 0 0 
-0.0605809 0.12672 0.0401378 0 0 0 
-0.0602276 0.126722 0.0397619 0 0 0 
-0.059806 0.126729 0.0394931 0 0 0 
-0.0593845 0.126736 0.0392244 0 0 0 
-0.0589629 0.126743 0.0389556 0 0 0 
-0.0586778 0.126739 0.0384725 0 0 0 
-0.0582562 0.126746 0.0382038 0 0 0 
-0.0579029 0.126749 0.0378278 0 0 0 
-0.0576177 0.126745 0.0373448 0 0 0 
-0.0571962 0.126752 0.0370761 0 0 0 
-0.0568429 0.126754 0.0367001 0 0 0 
-0.0564213 0.126761 0.0364313 0 0 0 
-0.056068 0.126763 0.0360554 0 0 0 
-0.0556464 0.12677 0.0357866 0 0 0 
-0.0552931 0.126772 0.0354107 0 0 0 
-0.0548715 0.126779 0.035142 0 0 0 
-0.05445 0.126786 0.0348732 0 0 0 
-0.0540966 0.126787 0.0344973 0 0 0 
-0.0537433 0.12679 0.0341214 0 0 0 
-0.0533899 0.126792 0.0337455 0 0 0 
-0.0530366 0.126793 0.0333696 0 0 0 
-0.0526832 0.126796 0.0329937 0 0 0 
-0.0523981 0.126792 0.0325106 0 0 0 
-0.0520448 0.126794 0.0321347 0 0 0 
-0.0517597 0.126791 0.0316517 0 0 0 
-0.0514745 0.126787 0.0311687 0 0 0 
-0.0511212 0.12679 0.0307927 0 0 0 
-0.0508361 0.126786 0.0303097 0 0 0 
-0.050551 0.126783 0.0298266 0 0 0 
-0.0502659 0.126779 0.0293436 0 0 0 
-0.050049 0.126771 0.0287534 0 0 0 
-0.0497639 0.126769 0.0282703 0 0 0 
-0.0494787 0.126765 0.0277873 0 0 0 
-0.04933 0.126751 0.02709 0 0 0 
-0.049045 0.126748 0.0266069 0 0 0 
-0.0488281 0.12674 0.0260167 0 0 0 
-0.0486112 0.126731 0.0254265 0 0 0 
-0.0483943 0.126723 0.0248364 0 0 0 
-0.0481091 0.12672 0.0243533 0 0 0 
-0.0478922 0.126712 0.0237631 0 0 0 
-0.0476753 0.126703 0.023173 0 0 0 
-0.0474585 0.126695 0.0225827 0 0 0 
-0.0473098 0.126681 0.0218854 0 0 0 
-0.0470929 0.126673 0.0212952 0 0 0 
-0.0468078 0.12667 0.0208122 0 0 0 
-0.0465226 0.126667 0.0203292 0 0 0 
-0.0461693 0.126668 0.0199532 0 0 0 
-0.045816 0.126671 0.0195773 0 0 0 
-0.0455308 0.126667 0.0190943 0 0 0 
-0.0451775 0.12667 0.0187184 0 0 0 
-0.0447559 0.126677 0.0184496 0 0 0 
-0.0444026 0.126678 0.0180736 0 0 0 
-0.0439128 0.126691 0.0179121 0 0 0 
-0.0434912 0.126698 0.0176433 0 0 0 
-0.0429332 0.126714 0.0175888 0 0 0 
-0.0422388 0.126742 0.0177486 0 0 0 
-0.0419537 0.126739 0.0172656 0 0 0 
-0.0417368 0.12673 0.0166754 0 0 0 
-0.0409741 0.126763 0.0169423 0 0 0 
-0.0402797 0.12679 0.0171021 0 0 0 
-0.0390394 0.126859 0.018119 0 0 0 
-0.0386179 0.126866 0.0178502 0 0 0 
-0.0382645 0.126868 0.0174743 0 0 0 
-0.0381158 0.126854 0.016777 0 0 0 
-0.0376261 0.126867 0.0166153 0 0 0 
-0.0372046 0.126874 0.0163465 0 0 0 
-0.0370559 0.12686 0.0156492 0 0 0 
-0.0365661 0.126872 0.0154876 0 0 0 
-0.0368267 0.126828 0.0141475 0 0 0 
-0.0146337 0.127813 0.0257286 0 0 0 
-0.0115682 0.127921 0.0277491 0 0 0 
-0.0103749 0.127965 0.0286919 0 0 0 
-0.00963172 0.127988 0.0289279 0 0 0 
-0.00895288 0.128007 0.029063 0 0 0 
-0.00833838 0.128024 0.0290971 0 0 0 
-0.00778818 0.128037 0.0290302 0 0 0 
-0.0070451 0.128059 0.0292662 0 0 0 
-0.00655921 0.128069 0.0290984 0 0 0 
-0.00581607 0.128092 0.0293344 0 0 0 
-0.00500861 0.128117 0.0296714 0 0 0 
-0.00458705 0.128124 0.0294027 0 0 0 
-0.00397254 0.128141 0.0294368 0 0 0 
-0.00335803 0.128157 0.0294709 0 0 0 
-0.00280784 0.12817 0.029404 0 0 0 
-0.00219333 0.128187 0.0294381 0 0 0 
-0.00164313 0.1282 0.0293713 0 0 0 
-0.00102862 0.128217 0.0294054 0 0 0 
-0.000542742 0.128226 0.0292376 0 0 0 
-5.68712e-05 0.128237 0.0290698 0 0 0 
0.00068627 0.12826 0.0293058 0 0 0 
0.00117215 0.12827 0.029138 0 0 0 
0.00178666 0.128286 0.0291721 0 0 0 
0.00240117 0.128302 0.0292063 0 0 0 
0.00295136 0.128316 0.0291394 0 0 0 
0.00343725 0.128325 0.0289716 0 0 0 
0.0040517 0.128342 0.0290056 0 0 0 
0.00460189 0.128355 0.0289388 0 0 0 
0.00508778 0.128365 0.028771 0 0 0 
0.00563797 0.128378 0.0287041 0 0 0 
0.00612385 0.128388 0.0285363 0 0 0 
0.00660972 0.128399 0.0283685 0 0 0 
0.0070956 0.128409 0.0282007 0 0 0 
0.00745284 0.128413 0.027831 0 0 0 
0.00793872 0.128423 0.0276632 0 0 0 
0.00823166 0.128423 0.0271925 0 0 0 
0.00865322 0.12843 0.0269237 0 0 0 
0.00907478 0.128437 0.0266549 0 0 0 
0.00949634 0.128444 0.0263862 0 0 0 
0.00978926 0.128446 0.0259155 0 0 0 
0.0102108 0.128453 0.0256467 0 0 0 
0.0105681 0.128456 0.025277 0 0 0 
0.0109253 0.12846 0.0249073 0 0 0 
0.0111539 0.128458 0.0243356 0 0 0 
0.0117041 0.128472 0.0242688 0 0 0 
0.0119971 0.128472 0.0237981 0 0 0 
0.0121614 0.128466 0.0231255 0 0 0 
0.012583 0.128473 0.0228568 0 0 0 
0.0128759 0.128475 0.0223861 0 0 0 
0.0131688 0.128475 0.0219154 0 0 0 
0.0133974 0.128473 0.0213437 0 0 0 
0.013626 0.128471 0.0207721 0 0 0 
0.0141119 0.12848 0.0206043 0 0 0 
0.0135044 0.128437 0.0187201 0 0 0 
0.0141189 0.128455 0.0187543 0 0 0 
0.0131899 0.128396 0.0163653 0 0 0 
0.01374 0.128409 0.0162985 0 0 0 
0.0139044 0.128403 0.0156258 0 0 0 
0.0143902 0.128414 0.015458 0 0 0 
0.0147475 0.128417 0.0150883 0 0 0 
0.0146546 0.128399 0.0140119 0 0 0 
0.0148189 0.128394 0.0133393 0 0 0 
0.0148545 0.128383 0.0124648 0 0 0 
0.0143756 0.128346 0.0107826 0 0 0 
0.0138968 0.12831 0.00910036 0 0 0 
0.0143183 0.128317 0.00883159 0 0 0 
0.014354 0.128305 0.00795706 0 0 0 
0.0137466 0.128262 0.006073 0 0 0 
0.0141681 0.128269 0.00580423 0 0 0 
-0.0887177 0.126744 0.0494907 0 0 0 
-0.0880233 0.126771 0.0496505 0 0 0 
-0.0867148 0.126844 0.0507744 0 0 0 
-0.0854064 0.126916 0.0518985 0 0 0 
-0.0845073 0.126959 0.0523797 0 0 0 
-0.0837446 0.126991 0.0526466 0 0 0 
-0.0829137 0.127029 0.0530206 0 0 0 
-0.0822875 0.127051 0.0530733 0 0 0 
-0.081593 0.127078 0.0532331 0 0 0 
-0.081035 0.127095 0.0531786 0 0 0 
-0.0804088 0.127118 0.0532312 0 0 0 
-0.0798508 0.127134 0.0531767 0 0 0 
-0.0792928 0.127152 0.0531222 0 0 0 
-0.078803 0.127163 0.0529606 0 0 0 
-0.078245 0.127181 0.0529061 0 0 0 
-0.0777552 0.127193 0.0527445 0 0 0 
-0.0772654 0.127205 0.0525828 0 0 0 
-0.0767757 0.127217 0.0524212 0 0 0 
-0.0762859 0.127229 0.0522596 0 0 0 
-0.0757961 0.127242 0.0520979 0 0 0 
-0.0753063 0.127253 0.0519363 0 0 0 
-0.0748165 0.127265 0.0517748 0 0 0 
-0.0743267 0.127277 0.0516131 0 0 0 
-0.0738369 0.12729 0.0514515 0 0 0 
-0.0734154 0.127297 0.0511827 0 0 0 
-0.0729938 0.127304 0.050914 0 0 0 
-0.0725041 0.127315 0.0507522 0 0 0 
-0.0720825 0.127322 0.0504835 0 0 0 
-0.0717291 0.127325 0.0501076 0 0 0 
-0.0713076 0.127332 0.0498389 0 0 0 
-0.0709542 0.127333 0.049463 0 0 0 
-0.0705326 0.12734 0.0491942 0 0 0 
-0.0701793 0.127342 0.0488183 0 0 0 
-0.069826 0.127345 0.0484423 0 0 0 
-0.0694727 0.127347 0.0480664 0 0 0 
-0.0691193 0.127348 0.0476905 0 0 0 
-0.068766 0.12735 0.0473146 0 0 0 
-0.0684127 0.127353 0.0469387 0 0 0 
-0.0681275 0.127349 0.0464557 0 0 0 
-0.0678424 0.127346 0.0459726 0 0 0 
-0.0674891 0.127348 0.0455967 0 0 0 
-0.0672039 0.127345 0.0451137 0 0 0 
-0.0669188 0.127342 0.0446307 0 0 0 
-0.0665655 0.127343 0.0442547 0 0 0 
-0.0662804 0.127341 0.0437717 0 0 0 
-0.0659952 0.127337 0.0432887 0 0 0 
-0.0657101 0.127335 0.0428056 0 0 0 
-0.0652886 0.127342 0.0425369 0 0 0 
-0.0650034 0.127338 0.0420538 0 0 0 
-0.0646501 0.127341 0.0416779 0 0 0 
-0.0641603 0.127353 0.0415163 0 0 0 
-0.0637387 0.12736 0.0412475 0 0 0 
-0.0633172 0.127367 0.0409788 0 0 0 
-0.0628274 0.127378 0.0408171 0 0 0 
-0.0623376 0.127391 0.0406555 0 0 0 
-0.0619161 0.127398 0.0403867 0 0 0 
-0.0614263 0.12741 0.0402251 0 0 0 
-0.0610047 0.127417 0.0399563 0 0 0 
-0.0605832 0.127424 0.0396876 0 0 0 
-0.0601616 0.127431 0.0394188 0 0 0 
-0.05974 0.127438 0.03915 0 0 0 
-0.0593185 0.127445 0.0388812 0 0 0 
-0.0589651 0.127447 0.0385053 0 0 0 
-0.0586118 0.127448 0.0381294 0 0 0 
-0.0582584 0.127451 0.0377535 0 0 0 
-0.0579051 0.127453 0.0373776 0 0 0 
-0.0574836 0.12746 0.0371089 0 0 0 
-0.0571302 0.127461 0.036733 0 0 0 
-0.0567086 0.127468 0.0364642 0 0 0 
-0.0563554 0.127471 0.0360882 0 0 0 
-0.0559338 0.127478 0.0358194 0 0 0 
-0.0555804 0.12748 0.0354436 0 0 0 
-0.0551588 0.127487 0.0351749 0 0 0 
-0.0548055 0.127488 0.0347989 0 0 0 
-0.0544522 0.12749 0.034423 0 0 0 
-0.0540306 0.127497 0.0341542 0 0 0 
-0.0536773 0.1275 0.0337783 0 0 0 
-0.053324 0.127501 0.0334024 0 0 0 
-0.0529706 0.127503 0.0330265 0 0 0 
-0.0526173 0.127506 0.0326506 0 0 0 
-0.0523322 0.127502 0.0321675 0 0 0 
-0.0519788 0.127504 0.0317916 0 0 0 
-0.0516937 0.127501 0.0313086 0 0 0 
-0.0514086 0.127498 0.0308256 0 0 0 
-0.0511235 0.127495 0.0303425 0 0 0 
-0.0508383 0.127492 0.0298595 0 0 0 
-0.050485 0.127494 0.0294836 0 0 0 
-0.0502681 0.127486 0.0288934 0 0 0 
-0.0500512 0.127477 0.0283032 0 0 0 
-0.0497661 0.127474 0.0278202 0 0 0 
-0.049481 0.127471 0.0273371 0 0 0 
-0.0492641 0.127463 0.0267469 0 0 0 
-0.0490472 0.127455 0.0261567 0 0 0 
-0.0488303 0.127447 0.0255666 0 0 0 
-0.0485452 0.127443 0.0250835 0 0 0 
-0.0483283 0.127435 0.0244934 0 0 0 
-0.0481796 0.127422 0.0237961 0 0 0 
-0.0478945 0.12742 0.023313 0 0 0 
-0.0477458 0.127406 0.0226157 0 0 0 
-0.0474607 0.127403 0.0221327 0 0 0 
-0.0472438 0.127395 0.0215424 0 0 0 
-0.0469587 0.127392 0.0210594 0 0 0 
-0.0466736 0.127388 0.0205763 0 0 0 
-0.0464567 0.127381 0.0199862 0 0 0 
-0.0461033 0.127382 0.0196103 0 0 0 
-0.0458864 0.127374 0.0190201 0 0 0 
-0.0456695 0.127366 0.0184299 0 0 0 
-0.0453844 0.127364 0.0179469 0 0 0 
-0.0450993 0.12736 0.0174639 0 0 0 
-0.0448142 0.127357 0.0169808 0 0 0 
-0.0444608 0.127359 0.0166049 0 0 0 
-0.043971 0.127371 0.0164433 0 0 0 
-0.0437541 0.127362 0.0158531 0 0 0 
-0.0431961 0.12738 0.0157986 0 0 0 
-0.0425699 0.127402 0.0158512 0 0 0 
-0.0422166 0.127404 0.0154753 0 0 0 
-0.0417268 0.127416 0.0153137 0 0 0 
-0.0411688 0.127434 0.0152592 0 0 0 
-0.0408837 0.12743 0.0147762 0 0 0 
-0.0405303 0.127432 0.0144003 0 0 0 
-0.0402452 0.127429 0.0139172 0 0 0 
-0.0396872 0.127447 0.0138627 0 0 0 
-0.0396067 0.127428 0.0130583 0 0 0 
-0.0400039 0.127374 0.0115038 0 0 0 
-0.0394459 0.127391 0.0114493 0 0 0 
-0.0391607 0.127388 0.0109663 0 0 0 
-0.00958638 0.128676 0.0276217 0 0 0 
-0.00903619 0.12869 0.0275549 0 0 0 
-0.00848598 0.128702 0.027488 0 0 0 
-0.00800011 0.128713 0.0273202 0 0 0 
-0.00699969 0.128747 0.0279601 0 0 0 
-0.00664245 0.128751 0.0275904 0 0 0 
-0.00570635 0.128782 0.0281293 0 0 0 
-0.00509184 0.128799 0.0281634 0 0 0 
-0.00454159 0.128812 0.0280966 0 0 0 
-0.00386276 0.128831 0.0282317 0 0 0 
-0.00337688 0.128841 0.0280639 0 0 0 
-0.00263374 0.128864 0.0282999 0 0 0 
-0.00214786 0.128873 0.0281321 0 0 0 
-0.00146903 0.128892 0.0282672 0 0 0 
-0.00104747 0.128899 0.0279984 0 0 0 
-0.000497275 0.128913 0.0279316 0 0 0 
0.000117246 0.128928 0.0279657 0 0 0 
0.000796067 0.128948 0.0281008 0 0 0 
0.00121763 0.128955 0.027832 0 0 0 
0.00183215 0.128971 0.0278661 0 0 0 
0.00218939 0.128975 0.0274964 0 0 0 
0.00293253 0.128998 0.0277324 0 0 0 
0.00335409 0.129005 0.0274637 0 0 0 
0.00403293 0.129024 0.0275987 0 0 0 
0.00451881 0.129033 0.0274309 0 0 0 
0.00500469 0.129043 0.0272631 0 0 0 
0.00549061 0.129054 0.0270954 0 0 0 
0.00604082 0.129066 0.0270285 0 0 0 
0.00633374 0.129068 0.0265578 0 0 0 
0.00681962 0.129078 0.02639 0 0 0 
0.0073055 0.129087 0.0262222 0 0 0 
0.00779137 0.129098 0.0260544 0 0 0 
0.0080843 0.129099 0.0255837 0 0 0 
0.00850586 0.129106 0.025315 0 0 0 
0.00873442 0.129103 0.0247432 0 0 0 
0.00915598 0.129111 0.0244745 0 0 0 
0.00951323 0.129115 0.0241047 0 0 0 
0.00980616 0.129115 0.023634 0 0 0 
0.0101634 0.12912 0.0232643 0 0 0 
0.0105206 0.129124 0.0228946 0 0 0 
0.0107493 0.129122 0.0223229 0 0 0 
0.0111065 0.129125 0.0219532 0 0 0 
0.0113351 0.129124 0.0213816 0 0 0 
0.0114351 0.129115 0.020608 0 0 0 
0.011728 0.129116 0.0201373 0 0 0 
0.0120209 0.129117 0.0196666 0 0 0 
0.0113491 0.129072 0.0176814 0 0 0 
0.0118993 0.129086 0.0176147 0 0 0 
0.0121279 0.129083 0.0170429 0 0 0 
0.0123565 0.129081 0.0164713 0 0 0 
0.0125851 0.129079 0.0158996 0 0 0 
0.0129423 0.129083 0.0155299 0 0 0 
0.0130423 0.129074 0.0147563 0 0 0 
0.012885 0.129055 0.0135789 0 0 0 
0.0130493 0.12905 0.0129063 0 0 0 
0.0127634 0.129022 0.011527 0 0 0 
-0.0884471 0.127472 0.0494691 0 0 0 
-0.0872751 0.127534 0.0503788 0 0 0 
-0.0861031 0.127596 0.0512885 0 0 0 
-0.0849993 0.127653 0.0520912 0 0 0 
-0.0841684 0.12769 0.0524652 0 0 0 
-0.0833375 0.127726 0.0528392 0 0 0 
-0.0825748 0.127759 0.0531061 0 0 0 
-0.0819486 0.12778 0.0531588 0 0 0 
-0.0813224 0.127802 0.0532114 0 0 0 
-0.0807644 0.12782 0.0531569 0 0 0 
-0.0802064 0.127836 0.0531024 0 0 0 
-0.0796484 0.127854 0.0530479 0 0 0 
-0.0790904 0.12787 0.0529934 0 0 0 
-0.0785324 0.127888 0.0529389 0 0 0 
-0.0780426 0.127899 0.0527773 0 0 0 
-0.0775528 0.127911 0.0526156 0 0 0 
-0.0771312 0.127918 0.0523469 0 0 0 
-0.0766415 0.12793 0.0521852 0 0 0 
-0.0761517 0.127943 0.0520236 0 0 0 
-0.0756619 0.127954 0.051862 0 0 0 
-0.0752403 0.127961 0.0515932 0 0 0 
-0.0747506 0.127973 0.0514316 0 0 0 
-0.0742608 0.127985 0.0512699 0 0 0 
-0.0738392 0.127992 0.0510012 0 0 0 
-0.0733494 0.128005 0.0508395 0 0 0 
-0.0729279 0.128012 0.0505708 0 0 0 
-0.0725063 0.128019 0.050302 0 0 0 
-0.0720847 0.128026 0.0500332 0 0 0 
-0.0717314 0.128027 0.0496573 0 0 0 
-0.0713098 0.128034 0.0493885 0 0 0 
-0.0709565 0.128036 0.0490126 0 0 0 
-0.0705349 0.128043 0.0487439 0 0 0 
-0.0701816 0.128045 0.048368 0 0 0 
-0.0698283 0.128048 0.0479921 0 0 0 
-0.0694749 0.128049 0.0476162 0 0 0 
-0.0691216 0.128051 0.0472403 0 0 0 
-0.0688365 0.128049 0.0467572 0 0 0 
-0.0684831 0.12805 0.0463813 0 0 0 
-0.068198 0.128048 0.0458983 0 0 0 
-0.0679129 0.128044 0.0454152 0 0 0 
-0.0675595 0.128046 0.0450393 0 0 0 
-0.0672744 0.128044 0.0445563 0 0 0 
-0.0669211 0.128045 0.0441804 0 0 0 
-0.0666359 0.128043 0.0436974 0 0 0 
-0.0662826 0.128045 0.0433215 0 0 0 
-0.0659975 0.128042 0.0428384 0 0 0 
-0.0657124 0.128039 0.0423554 0 0 0 
-0.065359 0.12804 0.0419795 0 0 0 
-0.0650057 0.128043 0.0416036 0 0 0 
-0.0646523 0.128045 0.0412277 0 0 0 
-0.0642308 0.128052 0.0409589 0 0 0 
-0.0638092 0.128059 0.0406902 0 0 0 
-0.0633194 0.128071 0.0405285 0 0 0 
-0.0628297 0.128083 0.0403669 0 0 0 
-0.0624081 0.12809 0.0400981 0 0 0 
-0.0619183 0.128102 0.0399365 0 0 0 
-0.0614285 0.128114 0.0397749 0 0 0 
-0.061007 0.128121 0.0395061 0 0 0 
-0.0605854 0.128128 0.0392373 0 0 0 
-0.0601638 0.128135 0.0389685 0 0 0 
-0.0596741 0.128147 0.0388069 0 0 0 
-0.0593207 0.128149 0.038431 0 0 0 
-0.0588992 0.128156 0.0381622 0 0 0 
-0.0585458 0.128158 0.0377863 0 0 0 
-0.0581243 0.128165 0.0375176 0 0 0 
-0.0577709 0.128167 0.0371417 0 0 0 
-0.0574176 0.128169 0.0367658 0 0 0 
-0.056996 0.128176 0.036497 0 0 0 
-0.0566427 0.128178 0.0361211 0 0 0 
-0.0562893 0.128181 0.0357452 0 0 0 
-0.0558678 0.128188 0.0354764 0 0 0 
-0.0554462 0.128195 0.0352077 0 0 0 
-0.0550929 0.128196 0.0348317 0 0 0 
-0.0547395 0.128198 0.0344558 0 0 0 
-0.054318 0.128205 0.0341871 0 0 0 
-0.0539646 0.128207 0.0338112 0 0 0 
-0.0536113 0.12821 0.0334353 0 0 0 
-0.0533262 0.128206 0.0329522 0 0 0 
-0.0529046 0.128213 0.0326835 0 0 0 
-0.0526195 0.128211 0.0322004 0 0 0 
-0.0523344 0.128207 0.0317174 0 0 0 
-0.051981 0.12821 0.0313415 0 0 0 
-0.0516959 0.128207 0.0308585 0 0 0 
-0.0513426 0.128208 0.0304826 0 0 0 
-0.0511257 0.128201 0.0298924 0 0 0 
-0.0507723 0.128202 0.0295165 0 0 0 
-0.0504873 0.1282 0.0290334 0 0 0 
-0.0502704 0.128192 0.0284432 0 0 0 
-0.0499852 0.128189 0.0279602 0 0 0 
-0.0497683 0.128181 0.02737 0 0 0 
-0.0494832 0.128178 0.026887 0 0 0 
-0.0492663 0.12817 0.0262968 0 0 0 
-0.0489812 0.128167 0.0258138 0 0 0 
-0.0487643 0.128159 0.0252236 0 0 0 
-0.0485474 0.128152 0.0246334 0 0 0 
-0.0483305 0.128143 0.0240432 0 0 0 
-0.0481818 0.128131 0.0233459 0 0 0 
-0.0478967 0.128127 0.0228629 0 0 0 
-0.0476798 0.12812 0.0222727 0 0 0 
-0.0473947 0.128116 0.0217897 0 0 0 
-0.0471096 0.128114 0.0213067 0 0 0 
-0.0468927 0.128106 0.0207165 0 0 0 
-0.0466758 0.128098 0.0201263 0 0 0 
-0.0464589 0.12809 0.0195362 0 0 0 
-0.046242 0.128082 0.018946 0 0 0 
-0.0460251 0.128074 0.0183558 0 0 0 
-0.0458764 0.128061 0.0176584 0 0 0 
-0.0456595 0.128053 0.0170683 0 0 0 
-0.0455109 0.12804 0.016371 0 0 0 
-0.0451575 0.128042 0.0159951 0 0 0 
-0.0448724 0.12804 0.015512 0 0 0 
-0.0445873 0.128036 0.015029 0 0 0 
-0.0441657 0.128043 0.0147602 0 0 0 
-0.0437442 0.12805 0.0144914 0 0 0 
-0.0433908 0.128053 0.0141155 0 0 0 
-0.0429692 0.12806 0.0138468 0 0 0 
-0.0426159 0.128062 0.0134709 0 0 0 
-0.0421944 0.128069 0.0132021 0 0 0 
-0.0421821 0.128045 0.0122905 0 0 0 
-0.0416923 0.128057 0.0121289 0 0 0 
-0.0414072 0.128055 0.0116459 0 0 0 
-0.0412585 0.128042 0.0109486 0 0 0 
-0.0409734 0.128039 0.0104655 0 0 0 
-0.040279 0.128065 0.0106253 0 0 0 
-0.0399256 0.128068 0.0102494 0 0 0 
-0.00899086 0.12938 0.0262487 0 0 0 
-0.00850498 0.129389 0.0260809 0 0 0 
-0.0080191 0.129399 0.0259131 0 0 0 
-0.00714732 0.129427 0.0263511 0 0 0 
-0.00679007 0.129432 0.0259813 0 0 0 
-0.00598255 0.129456 0.0263184 0 0 0 
-0.00568967 0.129457 0.0258476 0 0 0 
-0.00539675 0.129458 0.0253769 0 0 0 
-0.00426763 0.129498 0.0262188 0 0 0 
-0.00333153 0.129529 0.0267577 0 0 0 
-0.00290997 0.129536 0.026489 0 0 0 
-0.00216677 0.129557 0.0267251 0 0 0 
-0.00155226 0.129574 0.0267592 0 0 0 
-0.00119501 0.129578 0.0263895 0 0 0 
-0.000580492 0.129593 0.0264236 0 0 0 
-0.00015893 0.1296 0.0261548 0 0 0 
0.000648584 0.129626 0.0264919 0 0 0 
0.00119879 0.129638 0.026425 0 0 0 
0.00168467 0.129648 0.0262572 0 0 0 
0.00242781 0.129671 0.0264932 0 0 0 
0.0025921 0.129666 0.0258206 0 0 0 
0.00294935 0.129669 0.0254509 0 0 0 
0.00375681 0.129695 0.0257879 0 0 0 
0.00398542 0.129692 0.0252162 0 0 0 
0.00447131 0.129702 0.0250484 0 0 0 
0.00527877 0.129728 0.0253854 0 0 0 
0.00563601 0.129732 0.0250157 0 0 0 
0.00618621 0.129744 0.0249488 0 0 0 
0.00667209 0.129754 0.024781 0 0 0 
0.00702933 0.129758 0.0244113 0 0 0 
0.00732225 0.12976 0.0239406 0 0 0 
0.00787246 0.129772 0.0238738 0 0 0 
0.00810107 0.12977 0.0233021 0 0 0 
0.00852263 0.129777 0.0230334 0 0 0 
0.00881555 0.129779 0.0225627 0 0 0 
0.00923711 0.129786 0.0222939 0 0 0 
0.00959435 0.12979 0.0219242 0 0 0 
0.00975865 0.129785 0.0212516 0 0 0 
0.0101802 0.129792 0.0209828 0 0 0 
0.0102802 0.129784 0.0202092 0 0 0 
0.0106374 0.129787 0.0198394 0 0 0 
0.0108017 0.129782 0.0191668 0 0 0 
0.00993682 0.12973 0.0168788 0 0 0 
0.010487 0.129743 0.0168119 0 0 0 
0.0110372 0.129756 0.0167451 0 0 0 
0.0112658 0.129754 0.0161734 0 0 0 
0.0113015 0.129744 0.0152989 0 0 0 
0.011723 0.129751 0.0150301 0 0 0 
0.0119516 0.129749 0.0144584 0 0 0 
0.0119229 0.129735 0.0134829 0 0 0 
0.0120872 0.12973 0.0128103 0 0 0 
-0.0888709 0.128174 0.0492878 0 0 0 
-0.0881764 0.1282 0.0494475 0 0 0 
-0.0867998 0.128276 0.0506786 0 0 0 
-0.0854913 0.128347 0.0518026 0 0 0 
-0.0846604 0.128383 0.0521766 0 0 0 
-0.0838295 0.128419 0.0525506 0 0 0 
-0.0830669 0.128451 0.0528175 0 0 0 
-0.0823724 0.128478 0.0529773 0 0 0 
-0.081678 0.128504 0.0531371 0 0 0 
-0.08112 0.128522 0.0530826 0 0 0 
-0.0804937 0.128543 0.0531352 0 0 0 
-0.0799357 0.12856 0.0530807 0 0 0 
-0.0793777 0.128577 0.0530262 0 0 0 
-0.0788879 0.128588 0.0528646 0 0 0 
-0.07833 0.128606 0.0528101 0 0 0 
-0.0778402 0.128618 0.0526484 0 0 0 
-0.0774186 0.128625 0.0523797 0 0 0 
-0.0769288 0.128636 0.052218 0 0 0 
-0.0765073 0.128643 0.0519493 0 0 0 
-0.0760175 0.128655 0.0517876 0 0 0 
-0.0755959 0.128662 0.0515188 0 0 0 
-0.0751061 0.128674 0.0513572 0 0 0 
-0.0746163 0.128686 0.0511956 0 0 0 
-0.0741948 0.128693 0.0509268 0 0 0 
-0.0737732 0.1287 0.050658 0 0 0 
-0.0733517 0.128707 0.0503893 0 0 0 
-0.0728619 0.12872 0.0502276 0 0 0 
-0.0725085 0.128721 0.0498517 0 0 0 
-0.072087 0.128728 0.049583 0 0 0 
-0.0717336 0.12873 0.0492071 0 0 0 
-0.0713121 0.128737 0.0489383 0 0 0 
-0.0709587 0.128739 0.0485624 0 0 0 
-0.0706054 0.128742 0.0481865 0 0 0 
-0.0702521 0.128744 0.0478106 0 0 0 
-0.0698987 0.128746 0.0474347 0 0 0 
-0.0695454 0.128748 0.0470588 0 0 0 
-0.0692603 0.128745 0.0465758 0 0 0 
-0.0689069 0.128747 0.0461999 0 0 0 
-0.0686218 0.128745 0.0457168 0 0 0 
-0.0683367 0.128741 0.0452338 0 0 0 
-0.0679833 0.128744 0.0448579 0 0 0 
-0.06763 0.128746 0.044482 0 0 0 
-0.0673449 0.128742 0.0439989 0 0 0 
-0.0669915 0.128745 0.043623 0 0 0 
-0.0667064 0.128742 0.04314 0 0 0 
-0.0664213 0.12874 0.042657 0 0 0 
-0.0661362 0.128736 0.0421739 0 0 0 
-0.0657828 0.128739 0.041798 0 0 0 
-0.0654295 0.128741 0.0414221 0 0 0 
-0.0650762 0.128743 0.0410462 0 0 0 
-0.0646546 0.12875 0.0407775 0 0 0 
-0.064233 0.128757 0.0405087 0 0 0 
-0.0638115 0.128764 0.0402399 0 0 0 
-0.0633217 0.128776 0.0400783 0 0 0 
-0.0628319 0.128788 0.0399167 0 0 0 
-0.0624103 0.128795 0.0396479 0 0 0 
-0.0619206 0.128807 0.0394863 0 0 0 
-0.0614308 0.128818 0.0393246 0 0 0 
-0.0610092 0.128825 0.0390558 0 0 0 
-0.0605194 0.128838 0.0388942 0 0 0 
-0.0600979 0.128845 0.0386254 0 0 0 
-0.0596763 0.128852 0.0383567 0 0 0 
-0.059323 0.128853 0.0379808 0 0 0 
-0.0589014 0.12886 0.037712 0 0 0 
-0.0584798 0.128867 0.0374432 0 0 0 
-0.0580583 0.128874 0.0371745 0 0 0 
-0.0577049 0.128877 0.0367986 0 0 0 
-0.0572834 0.128884 0.0365298 0 0 0 
-0.0569301 0.128886 0.0361539 0 0 0 
-0.0565767 0.128888 0.035778 0 0 0 
-0.0561551 0.128895 0.0355092 0 0 0 
-0.0558018 0.128898 0.0351333 0 0 0 
-0.0553802 0.128905 0.0348646 0 0 0 
-0.0550269 0.128907 0.0344887 0 0 0 
-0.0546736 0.128908 0.0341128 0 0 0 
-0.0543202 0.12891 0.0337369 0 0 0 
-0.0538987 0.128917 0.0334681 0 0 0 
-0.0536135 0.128915 0.0329851 0 0 0 
-0.0532602 0.128917 0.0326092 0 0 0 
-0.0529069 0.128918 0.0322332 0 0 0 
-0.0526217 0.128916 0.0317502 0 0 0 
-0.0522684 0.128918 0.0313743 0 0 0 
-0.0519833 0.128916 0.0308913 0 0 0 
-0.0516299 0.128917 0.0305154 0 0 0 
-0.0513448 0.128915 0.0300323 0 0 0 
-0.0510597 0.128912 0.0295493 0 0 0 
-0.0507746 0.128909 0.0290663 0 0 0 
-0.0504895 0.128906 0.0285832 0 0 0 
-0.0502044 0.128904 0.0281002 0 0 0 
-0.0499875 0.128896 0.02751 0 0 0 
-0.0497023 0.128893 0.027027 0 0 0 
-0.0494854 0.128885 0.0264368 0 0 0 
-0.0492685 0.128878 0.0258467 0 0 0 
-0.0489834 0.128874 0.0253636 0 0 0 
-0.0487665 0.128867 0.0247735 0 0 0 
-0.0486179 0.128854 0.0240762 0 0 0 
-0.048401 0.128847 0.023486 0 0 0 
-0.0481158 0.128843 0.023003 0 0 0 
-0.0478307 0.128841 0.0225199 0 0 0 
-0.0475456 0.128839 0.0220369 0 0 0 
-0.0473287 0.12883 0.0214467 0 0 0 
-0.0470436 0.128828 0.0209637 0 0 0 
-0.0468949 0.128815 0.0202664 0 0 0 
-0.0467462 0.128802 0.0195691 0 0 0 
-0.0465293 0.128795 0.0189789 0 0 0 
-0.0464489 0.128777 0.0181745 0 0 0 
-0.0463002 0.128764 0.0174772 0 0 0 
-0.0461515 0.128752 0.0167799 0 0 0 
-0.0460711 0.128735 0.0159755 0 0 0 
-0.0457859 0.128731 0.0154924 0 0 0 
-0.0455008 0.128729 0.0150094 0 0 0 
-0.0452839 0.12872 0.0144192 0 0 0 
-0.045067 0.128713 0.013829 0 0 0 
-0.0447819 0.128711 0.013346 0 0 0 
-0.0444968 0.128707 0.012863 0 0 0 
-0.0442117 0.128705 0.0123799 0 0 0 
-0.0449499 0.128628 0.0102899 0 0 0 
-0.0445965 0.128631 0.00991401 0 0 0 
0.000729584 0.130303 0.0243112 0 0 0 
0.000186258 0.130267 0.0225278 0 0 0 
0.00157271 0.130317 0.0237736 0 0 0 
0.00225154 0.130336 0.0239087 0 0 0 
0.00209419 0.130316 0.0227312 0 0 0 
0.00296603 0.130343 0.0231692 0 0 0 
0.0034519 0.130354 0.0230014 0 0 0 
0.00406642 0.130369 0.0230355 0 0 0 
0.00435935 0.130371 0.0225649 0 0 0 
0.00471659 0.130375 0.0221951 0 0 0 
0.00513815 0.130382 0.0219264 0 0 0 
0.00588131 0.130403 0.0221624 0 0 0 
0.00662452 0.130425 0.0223985 0 0 0 
0.00685312 0.130424 0.0218269 0 0 0 
0.007339 0.130433 0.021659 0 0 0 
0.00782488 0.130443 0.0214912 0 0 0 
0.00818212 0.130447 0.0211215 0 0 0 
0.00751017 0.130405 0.0191363 0 0 0 
0.00754576 0.130394 0.0182617 0 0 0 
0.00822465 0.130413 0.0183968 0 0 0 
0.00819593 0.1304 0.0174212 0 0 0 
0.00881045 0.130415 0.0174553 0 0 0 
0.00846014 0.130387 0.015975 0 0 0 
0.00901033 0.130401 0.0159081 0 0 0 
0.00898166 0.130387 0.0149327 0 0 0 
0.00927454 0.130388 0.0144619 0 0 0 
0.00982478 0.130401 0.0143951 0 0 0 
0.0104393 0.130417 0.0144292 0 0 0 
0.0103463 0.130401 0.0133527 0 0 0 
-0.088532 0.128907 0.0493733 0 0 0 
-0.0878375 0.128933 0.0495331 0 0 0 
-0.0864609 0.129008 0.0507642 0 0 0 
-0.0852889 0.129068 0.0516739 0 0 0 
-0.0843897 0.129108 0.052155 0 0 0 
-0.0836271 0.12914 0.0524219 0 0 0 
-0.0828644 0.129171 0.0526887 0 0 0 
-0.08217 0.129198 0.0528485 0 0 0 
-0.0815438 0.129219 0.0529011 0 0 0 
