ply
format ascii 1.0
element vertex 1401
property float x
property float y
property float z
property float nx
property float ny
property float nz
end_header
-0.04125 0.114089 -0.0649839 0 0 0 
-0.04025 0.117137 -0.00016845 0 0 0 
-0.03975 0.117321 0.00374305 0 0 0 
-0.03925 0.117334 0.00401282 0 0 0 
-0.03875 0.117511 0.0076876 0 0 0 
-0.03825 0.117523 0.00794169 0 0 0 
-0.03775 0.117648 0.0104826 0 0 0 
-0.03725 0.117686 0.0112449 0 0 0 
-0.03675 0.117818 0.0139128 0 0 0 
-0.03625 0.117855 0.0146751 0 0 0 
-0.03575 0.118044 0.0184864 0 0 0 
-0.03525 0.118094 0.0195028 0 0 0 
-0.03475 0.118125 0.020138 0 0 0 
-0.03425 0.118169 0.0210273 0 0 0 
-0.03375 0.118213 0.0219167 0 0 0 
-0.03325 0.118238 0.0224248 0 0 0 
-0.03275 0.118263 0.022933 0 0 0 
-0.03225 0.118294 0.0235683 0 0 0 
-0.03175 0.118319 0.0240764 0 0 0 
-0.03125 0.118338 0.0244576 0 0 0 
-0.03075 0.118363 0.0249657 0 0 0 
-0.03025 0.118382 0.0253469 0 0 0 
-0.02975 0.118401 0.025728 0 0 0 
-0.02925 0.118439 0.0264903 0 0 0 
-0.02875 0.11847 0.0271255 0 0 0 
-0.02825 0.118483 0.0273796 0 0 0 
-0.02775 0.118514 0.0280148 0 0 0 
-0.02725 0.118533 0.028396 0 0 0 
-0.02675 0.118545 0.0286501 0 0 0 
-0.02625 0.118564 0.0290312 0 0 0 
-0.02575 0.118577 0.0292853 0 0 0 
-0.02525 0.118589 0.0295394 0 0 0 
-0.02475 0.118602 0.0297935 0 0 0 
-0.02425 0.118608 0.0299205 0 0 0 
-0.02375 0.118621 0.0301746 0 0 0 
-0.02325 0.118621 0.0301746 0 0 0 
-0.02275 0.118627 0.0303016 0 0 0 
-0.02225 0.118627 0.0303016 0 0 0 
-0.02175 0.118639 0.0305557 0 0 0 
-0.02125 0.118639 0.0305557 0 0 0 
-0.02075 0.118639 0.0305557 0 0 0 
-0.02025 0.118639 0.0305557 0 0 0 
-0.01975 0.118646 0.0306828 0 0 0 
-0.01925 0.118646 0.0306828 0 0 0 
-0.01875 0.118652 0.0308098 0 0 0 
-0.01825 0.118652 0.0308098 0 0 0 
-0.01775 0.118658 0.0309369 0 0 0 
-0.01725 0.118658 0.0309369 0 0 0 
-0.01675 0.118658 0.0309369 0 0 0 
-0.01625 0.118658 0.0309369 0 0 0 
-0.01575 0.118664 0.0310639 0 0 0 
-0.01525 0.118664 0.0310639 0 0 0 
-0.01475 0.118664 0.0310639 0 0 0 
-0.01425 0.118671 0.031191 0 0 0 
-0.01375 0.118671 0.031191 0 0 0 
-0.01325 0.118671 0.031191 0 0 0 
-0.01275 0.118671 0.031191 0 0 0 
-0.01225 0.118671 0.031191 0 0 0 
-0.01175 0.118671 0.031191 0 0 0 
-0.01125 0.118671 0.031191 0 0 0 
-0.01075 0.118671 0.031191 0 0 0 
-0.01025 0.118664 0.0310639 0 0 0 
-0.00975 0.118664 0.0310639 0 0 0 
-0.00925 0.118664 0.0310639 0 0 0 
-0.00875 0.118664 0.0310639 0 0 0 
-0.00825 0.118664 0.0310639 0 0 0 
-0.00775 0.118664 0.0310639 0 0 0 
-0.00725 0.118664 0.0310639 0 0 0 
-0.00675 0.118658 0.0309369 0 0 0 
-0.00625 0.118652 0.0308098 0 0 0 
-0.00575 0.118646 0.0306828 0 0 0 
-0.00525 0.118646 0.0306828 0 0 0 
-0.00475 0.118639 0.0305557 0 0 0 
-0.00425 0.118633 0.0304287 0 0 0 
-0.00375 0.118627 0.0303016 0 0 0 
-0.00325 0.118627 0.0303016 0 0 0 
-0.00275 0.118614 0.0300476 0 0 0 
-0.00225 0.118602 0.0297935 0 0 0 
-0.00175 0.118595 0.0296664 0 0 0 
-0.00125 0.118589 0.0295394 0 0 0 
-0.00075 0.118583 0.0294123 0 0 0 
-0.00025 0.11857 0.0291582 0 0 0 
0.00025 0.118558 0.0289041 0 0 0 
0.00075 0.118552 0.0287771 0 0 0 
0.00125 0.118539 0.028523 0 0 0 
0.00175 0.118526 0.0282689 0 0 0 
0.00225 0.118514 0.0280148 0 0 0 
0.00275 0.118501 0.0277607 0 0 0 
0.00325 0.118483 0.0273796 0 0 0 
0.00375 0.118457 0.0268714 0 0 0 
0.00425 0.118439 0.0264903 0 0 0 
0.00475 0.118414 0.0259821 0 0 0 
0.00525 0.118388 0.0254739 0 0 0 
0.00575 0.118376 0.0252198 0 0 0 
0.00625 0.118351 0.0247117 0 0 0 
0.00675 0.118326 0.0242035 0 0 0 
0.00725 0.118307 0.0238223 0 0 0 
0.00775 0.118294 0.0235683 0 0 0 
0.00825 0.118276 0.0231871 0 0 0 
0.00875 0.118244 0.0225519 0 0 0 
0.00925 0.1182 0.0216626 0 0 0 
0.00975 0.118169 0.0210273 0 0 0 
0.01025 0.118119 0.020011 0 0 0 
0.01075 0.118069 0.0189946 0 0 0 
0.01125 0.118056 0.0187405 0 0 0 
0.01175 0.118018 0.0179783 0 0 0 
0.01225 0.117981 0.017216 0 0 0 
0.01275 0.117937 0.0163267 0 0 0 
0.01325 0.117874 0.0150562 0 0 0 
0.01375 0.117843 0.014421 0 0 0 
0.01425 0.117799 0.0135317 0 0 0 
0.01475 0.117755 0.0126424 0 0 0 
0.01525 0.117736 0.0122612 0 0 0 
0.01575 0.117511 0.0076876 0 0 0 
0.01625 0.117448 0.00641716 0 0 0 
0.01675 0.117454 0.00654418 0 0 0 
0.01725 0.117378 0.00495698 0 0 0 
-0.051 0.114603 -0.0704021 0 0 0 
-0.0505 0.114629 -0.0698316 0 0 0 
-0.05 0.114655 -0.0692612 0 0 0 
-0.0495 0.114669 -0.068976 0 0 0 
-0.049 0.114675 -0.0688334 0 0 0 
-0.0485 0.114715 -0.0679778 0 0 0 
-0.048 0.114728 -0.0676926 0 0 0 
-0.0475 0.114755 -0.0671221 0 0 0 
-0.047 0.114775 -0.0666943 0 0 0 
-0.0465 0.114788 -0.0664091 0 0 0 
-0.046 0.114808 -0.0659813 0 0 0 
-0.0455 0.114801 -0.0661239 0 0 0 
-0.045 0.114821 -0.0656961 0 0 0 
-0.0445 0.114821 -0.0656961 0 0 0 
-0.044 0.114841 -0.0652683 0 0 0 
-0.0435 0.114847 -0.0651257 0 0 0 
-0.043 0.114854 -0.0649831 0 0 0 
-0.0425 0.114861 -0.0648405 0 0 0 
-0.042 0.114881 -0.0644127 0 0 0 
-0.0415 0.114887 -0.06427 0 0 0 
-0.041 0.114887 -0.06427 0 0 0 
-0.0405 0.114887 -0.06427 0 0 0 
-0.04 0.117857 -0.000436291 0 0 0 
-0.0395 0.117883 0.000103258 0 0 0 
-0.039 0.118071 0.00414981 0 0 0 
-0.0385 0.11824 0.00768973 0 0 0 
-0.038 0.118246 0.00781678 0 0 0 
-0.0375 0.118345 0.0098494 0 0 0 
-0.037 0.118407 0.0111198 0 0 0 
-0.0365 0.118407 0.0111198 0 0 0 
-0.036 0.11858 0.0146769 0 0 0 
-0.0355 0.118586 0.014804 0 0 0 
-0.035 0.118803 0.0192504 0 0 0 
-0.0345 0.11884 0.0200126 0 0 0 
-0.034 0.118877 0.0207748 0 0 0 
-0.0335 0.118921 0.0216641 0 0 0 
-0.033 0.118939 0.0220452 0 0 0 
-0.0325 0.11897 0.0226804 0 0 0 
-0.032 0.119001 0.0233156 0 0 0 
-0.0315 0.119026 0.0238238 0 0 0 
-0.031 0.119045 0.0242049 0 0 0 
-0.0305 0.119063 0.024586 0 0 0 
-0.03 0.119082 0.0249671 0 0 0 
-0.0295 0.1191 0.0253482 0 0 0 
-0.029 0.119113 0.0256023 0 0 0 
-0.0285 0.119144 0.0262375 0 0 0 
-0.028 0.119162 0.0266187 0 0 0 
-0.0275 0.119193 0.0272539 0 0 0 
-0.027 0.119212 0.027635 0 0 0 
-0.0265 0.11923 0.0280161 0 0 0 
-0.026 0.119243 0.0282702 0 0 0 
-0.0255 0.119261 0.0286513 0 0 0 
-0.025 0.119274 0.0289054 0 0 0 
-0.0245 0.119286 0.0291594 0 0 0 
-0.024 0.119292 0.0292865 0 0 0 
-0.0235 0.119298 0.0294135 0 0 0 
-0.023 0.119311 0.0296676 0 0 0 
-0.0225 0.119311 0.0296676 0 0 0 
-0.022 0.119317 0.0297947 0 0 0 
-0.0215 0.119317 0.0297947 0 0 0 
-0.021 0.119323 0.0299217 0 0 0 
-0.0205 0.119323 0.0299217 0 0 0 
-0.02 0.119329 0.0300487 0 0 0 
-0.0195 0.119329 0.0300487 0 0 0 
-0.019 0.119336 0.0301758 0 0 0 
-0.0185 0.119336 0.0301758 0 0 0 
-0.018 0.119336 0.0301758 0 0 0 
-0.0175 0.119336 0.0301758 0 0 0 
-0.017 0.119342 0.0303028 0 0 0 
-0.0165 0.119342 0.0303028 0 0 0 
-0.016 0.119342 0.0303028 0 0 0 
-0.0155 0.119342 0.0303028 0 0 0 
-0.015 0.119348 0.0304298 0 0 0 
-0.0145 0.119348 0.0304298 0 0 0 
-0.014 0.119348 0.0304298 0 0 0 
-0.0135 0.119348 0.0304298 0 0 0 
-0.013 0.119348 0.0304298 0 0 0 
-0.0125 0.119354 0.0305569 0 0 0 
-0.012 0.119354 0.0305569 0 0 0 
-0.0115 0.119354 0.0305569 0 0 0 
-0.011 0.119354 0.0305569 0 0 0 
-0.0105 0.119354 0.0305569 0 0 0 
-0.01 0.119348 0.0304298 0 0 0 
-0.0095 0.119348 0.0304298 0 0 0 
-0.009 0.119348 0.0304298 0 0 0 
-0.0085 0.119342 0.0303028 0 0 0 
-0.008 0.119342 0.0303028 0 0 0 
-0.0075 0.119342 0.0303028 0 0 0 
-0.007 0.119342 0.0303028 0 0 0 
-0.0065 0.119336 0.0301758 0 0 0 
-0.006 0.119329 0.0300487 0 0 0 
-0.0055 0.119323 0.0299217 0 0 0 
-0.005 0.119317 0.0297947 0 0 0 
-0.0045 0.119317 0.0297947 0 0 0 
-0.004 0.119305 0.0295406 0 0 0 
-0.0035 0.119298 0.0294135 0 0 0 
-0.003 0.119286 0.0291594 0 0 0 
-0.0025 0.11928 0.0290324 0 0 0 
-0.002 0.119274 0.0289054 0 0 0 
-0.0015 0.119267 0.0287783 0 0 0 
-0.001 0.119261 0.0286513 0 0 0 
-0.0005 0.119249 0.0283972 0 0 0 
0 0.119243 0.0282702 0 0 0 
0.0005 0.11923 0.0280161 0 0 0 
0.001 0.119224 0.0278891 0 0 0 
0.0015 0.119206 0.0275079 0 0 0 
0.002 0.119187 0.0271268 0 0 0 
0.0025 0.119175 0.0268727 0 0 0 
0.003 0.119162 0.0266187 0 0 0 
0.0035 0.119137 0.0261105 0 0 0 
0.004 0.119125 0.0258564 0 0 0 
0.0045 0.1191 0.0253482 0 0 0 
0.005 0.119088 0.0250942 0 0 0 
0.0055 0.119063 0.024586 0 0 0 
0.006 0.119045 0.0242049 0 0 0 
0.0065 0.11902 0.0236967 0 0 0 
0.007 0.119001 0.0233156 0 0 0 
0.0075 0.118983 0.0229345 0 0 0 
0.008 0.118958 0.0224263 0 0 0 
0.0085 0.118921 0.0216641 0 0 0 
0.009 0.118877 0.0207748 0 0 0 
0.0095 0.118846 0.0201396 0 0 0 
0.01 0.118766 0.0184881 0 0 0 
0.0105 0.118754 0.018234 0 0 0 
0.011 0.118741 0.0179799 0 0 0 
0.0115 0.11871 0.0173448 0 0 0 
0.012 0.118661 0.0163284 0 0 0 
0.0125 0.118624 0.0155662 0 0 0 
0.013 0.118599 0.015058 0 0 0 
0.0135 0.118549 0.0140417 0 0 0 
0.014 0.1185 0.0130254 0 0 0 
0.0145 0.118456 0.0121361 0 0 0 
0.015 0.118438 0.011755 0 0 0 
0.0155 0.118159 0.0060382 0 0 0 
0.016 0.11814 0.00563356 0 0 0 
0.0165 0.118109 0.00495914 0 0 0 
-0.05175 0.115364 -0.0705437 0 0 0 
-0.05125 0.115423 -0.0692602 0 0 0 
-0.05075 0.115443 -0.0688324 0 0 0 
-0.05025 0.115449 -0.0686898 0 0 0 
-0.04975 0.115462 -0.0684046 0 0 0 
-0.04925 0.115489 -0.0678342 0 0 0 
-0.04875 0.115515 -0.0672638 0 0 0 
-0.04825 0.115541 -0.0666934 0 0 0 
-0.04775 0.115548 -0.0665508 0 0 0 
-0.04725 0.115561 -0.0662656 0 0 0 
-0.04675 0.11558 -0.0658378 0 0 0 
-0.04625 0.115593 -0.0655526 0 0 0 
-0.04575 0.115606 -0.0652674 0 0 0 
-0.04525 0.1156 -0.06541 0 0 0 
-0.04475 0.115613 -0.0651248 0 0 0 
-0.04425 0.115633 -0.064697 0 0 0 
-0.04375 0.115633 -0.064697 0 0 0 
-0.04325 0.115646 -0.0644118 0 0 0 
-0.04275 0.115652 -0.0642692 0 0 0 
-0.04225 0.115665 -0.063984 0 0 0 
-0.04175 0.115678 -0.0636988 0 0 0 
-0.04125 0.115678 -0.0636988 0 0 0 
-0.04075 0.115698 -0.063271 0 0 0 
-0.04025 0.115692 -0.0634136 0 0 0 
-0.03975 0.118578 -0.000704177 0 0 0 
-0.03925 0.118622 0.000240065 0 0 0 
-0.03875 0.11879 0.00388215 0 0 0 
-0.03825 0.118975 0.00781891 0 0 0 
-0.03775 0.118981 0.00794592 0 0 0 
-0.03725 0.119054 0.00947034 0 0 0 
-0.03675 0.119122 0.0108677 0 0 0 
-0.03625 0.119158 0.0116299 0 0 0 
-0.03575 0.119293 0.0144247 0 0 0 
-0.03525 0.119311 0.0148058 0 0 0 
-0.03475 0.119305 0.0146788 0 0 0 
-0.03425 0.119543 0.0196331 0 0 0 
-0.03375 0.119574 0.0202683 0 0 0 
-0.03325 0.119623 0.0212845 0 0 0 
-0.03275 0.119641 0.0216656 0 0 0 
-0.03225 0.119672 0.0223008 0 0 0 
-0.03175 0.119702 0.022936 0 0 0 
-0.03125 0.119721 0.0233171 0 0 0 
-0.03075 0.119745 0.0238252 0 0 0 
-0.03025 0.119763 0.0242063 0 0 0 
-0.02975 0.119788 0.0247145 0 0 0 
-0.02925 0.1198 0.0249685 0 0 0 
-0.02875 0.119812 0.0252226 0 0 0 
-0.02825 0.119831 0.0256037 0 0 0 
-0.02775 0.119849 0.0259848 0 0 0 
-0.02725 0.11988 0.02662 0 0 0 
-0.02675 0.119892 0.026874 0 0 0 
-0.02625 0.11991 0.0272551 0 0 0 
-0.02575 0.119928 0.0276362 0 0 0 
-0.02525 0.119941 0.0278903 0 0 0 
-0.02475 0.119953 0.0281444 0 0 0 
-0.02425 0.119971 0.0285255 0 0 0 
-0.02375 0.119977 0.0286525 0 0 0 
-0.02325 0.119983 0.0287796 0 0 0 
-0.02275 0.11999 0.0289066 0 0 0 
-0.02225 0.119996 0.0290336 0 0 0 
-0.02175 0.120002 0.0291607 0 0 0 
-0.02125 0.119996 0.0290336 0 0 0 
-0.02075 0.120002 0.0291607 0 0 0 
-0.02025 0.120008 0.0292877 0 0 0 
-0.01975 0.120008 0.0292877 0 0 0 
-0.01925 0.120008 0.0292877 0 0 0 
-0.01875 0.120008 0.0292877 0 0 0 
-0.01825 0.120014 0.0294147 0 0 0 
-0.01775 0.12002 0.0295418 0 0 0 
-0.01725 0.12002 0.0295418 0 0 0 
-0.01675 0.12002 0.0295418 0 0 0 
-0.01625 0.120026 0.0296688 0 0 0 
-0.01575 0.120026 0.0296688 0 0 0 
-0.01525 0.120032 0.0297958 0 0 0 
-0.01475 0.120032 0.0297958 0 0 0 
-0.01425 0.120026 0.0296688 0 0 0 
-0.01375 0.120032 0.0297958 0 0 0 
-0.01325 0.120032 0.0297958 0 0 0 
-0.01275 0.120032 0.0297958 0 0 0 
-0.01225 0.120032 0.0297958 0 0 0 
-0.01175 0.120032 0.0297958 0 0 0 
-0.01125 0.120032 0.0297958 0 0 0 
-0.01075 0.120032 0.0297958 0 0 0 
-0.01025 0.120032 0.0297958 0 0 0 
-0.00975 0.120032 0.0297958 0 0 0 
-0.00925 0.120026 0.0296688 0 0 0 
-0.00875 0.120026 0.0296688 0 0 0 
-0.00825 0.12002 0.0295418 0 0 0 
-0.00775 0.12002 0.0295418 0 0 0 
-0.00725 0.12002 0.0295418 0 0 0 
-0.00675 0.120014 0.0294147 0 0 0 
-0.00625 0.120008 0.0292877 0 0 0 
-0.00575 0.120008 0.0292877 0 0 0 
-0.00525 0.120002 0.0291607 0 0 0 
-0.00475 0.11999 0.0289066 0 0 0 
-0.00425 0.119983 0.0287796 0 0 0 
-0.00375 0.119977 0.0286525 0 0 0 
-0.00325 0.119971 0.0285255 0 0 0 
-0.00275 0.119965 0.0283985 0 0 0 
-0.00225 0.119959 0.0282714 0 0 0 
-0.00175 0.119953 0.0281444 0 0 0 
-0.00125 0.119941 0.0278903 0 0 0 
-0.00075 0.119935 0.0277633 0 0 0 
-0.00025 0.119916 0.0273822 0 0 0 
0.00025 0.119904 0.0271281 0 0 0 
0.00075 0.119892 0.026874 0 0 0 
0.00125 0.119873 0.0264929 0 0 0 
0.00175 0.119867 0.0263659 0 0 0 
0.00225 0.119855 0.0261118 0 0 0 
0.00275 0.119843 0.0258578 0 0 0 
0.00325 0.119825 0.0254767 0 0 0 
0.00375 0.119812 0.0252226 0 0 0 
0.00425 0.119788 0.0247145 0 0 0 
0.00475 0.119776 0.0244604 0 0 0 
0.00525 0.119751 0.0239522 0 0 0 
0.00575 0.119733 0.0235711 0 0 0 
0.00625 0.119708 0.023063 0 0 0 
0.00675 0.11969 0.0226819 0 0 0 
0.00725 0.119666 0.0221738 0 0 0 
0.00775 0.119635 0.0215386 0 0 0 
0.00825 0.119598 0.0207764 0 0 0 
0.00875 0.119549 0.0197601 0 0 0 
0.00925 0.119464 0.0179816 0 0 0 
0.00975 0.119458 0.0178546 0 0 0 
0.01025 0.119446 0.0176005 0 0 0 
0.01075 0.119433 0.0173465 0 0 0 
0.01125 0.119397 0.0165842 0 0 0 
0.01175 0.119354 0.015695 0 0 0 
0.01225 0.119323 0.0150599 0 0 0 
0.01275 0.119293 0.0144247 0 0 0 
0.01325 0.119244 0.0134084 0 0 0 
0.01375 0.119183 0.0121381 0 0 0 
0.01425 0.119152 0.0115029 0 0 0 
0.01475 0.119134 0.0111218 0 0 0 
-0.052 0.116146 -0.0702574 0 0 0 
-0.0515 0.116217 -0.0686889 0 0 0 
-0.051 0.11623 -0.0684037 0 0 0 
-0.0505 0.11623 -0.0684037 0 0 0 
-0.05 0.116262 -0.0676907 0 0 0 
-0.0495 0.116282 -0.0672629 0 0 0 
-0.049 0.116301 -0.0668351 0 0 0 
-0.0485 0.116327 -0.0662647 0 0 0 
-0.048 0.116333 -0.0661221 0 0 0 
-0.0475 0.116353 -0.0656943 0 0 0 
-0.047 0.116359 -0.0655517 0 0 0 
-0.0465 0.116372 -0.0652665 0 0 0 
-0.046 0.116392 -0.0648388 0 0 0 
-0.0455 0.116392 -0.0648388 0 0 0 
-0.045 0.116398 -0.0646961 0 0 0 
-0.0445 0.116411 -0.064411 0 0 0 
-0.044 0.116424 -0.0641258 0 0 0 
-0.0435 0.11643 -0.0639831 0 0 0 
-0.043 0.116437 -0.0638406 0 0 0 
-0.0425 0.11645 -0.0635554 0 0 0 
-0.042 0.116463 -0.0632702 0 0 0 
-0.0415 0.116463 -0.0632702 0 0 0 
-0.041 0.116469 -0.0631276 0 0 0 
-0.0405 0.116482 -0.0628424 0 0 0 
-0.04 0.116482 -0.0628424 0 0 0 
-0.039 0.119367 0.000511818 0 0 0 
-0.0385 0.119392 0.0010514 0 0 0 
-0.038 0.119692 0.00756696 0 0 0 
-0.0375 0.119716 0.00807507 0 0 0 
-0.037 0.119776 0.00934535 0 0 0 
-0.0365 0.119807 0.00998051 0 0 0 
-0.036 0.119879 0.0115049 0 0 0 
-0.0355 0.120006 0.0141725 0 0 0 
-0.035 0.120024 0.0145536 0 0 0 
-0.0345 0.120036 0.0148076 0 0 0 
-0.034 0.120235 0.0189996 0 0 0 
-0.0335 0.120283 0.0200158 0 0 0 
-0.033 0.120319 0.020778 0 0 0 
-0.0325 0.120337 0.021159 0 0 0 
-0.032 0.120368 0.0217942 0 0 0 
-0.0315 0.120398 0.0224293 0 0 0 
-0.031 0.120422 0.0229375 0 0 0 
-0.0305 0.12044 0.0233185 0 0 0 
-0.03 0.120464 0.0238267 0 0 0 
-0.0295 0.120482 0.0242078 0 0 0 
-0.029 0.1205 0.0245888 0 0 0 
-0.0285 0.120506 0.0247159 0 0 0 
-0.028 0.120524 0.025097 0 0 0 
-0.0275 0.120537 0.025351 0 0 0 
-0.027 0.120555 0.0257321 0 0 0 
-0.0265 0.120573 0.0261132 0 0 0 
-0.026 0.120585 0.0263672 0 0 0 
-0.0255 0.120603 0.0267483 0 0 0 
-0.025 0.120621 0.0271294 0 0 0 
-0.0245 0.120639 0.0275105 0 0 0 
-0.024 0.120645 0.0276375 0 0 0 
-0.0235 0.120657 0.0278916 0 0 0 
-0.023 0.120663 0.0280186 0 0 0 
-0.0225 0.120669 0.0281456 0 0 0 
-0.022 0.120675 0.0282727 0 0 0 
-0.0215 0.120675 0.0282727 0 0 0 
-0.021 0.120675 0.0282727 0 0 0 
-0.0205 0.120681 0.0283997 0 0 0 
-0.02 0.120687 0.0285267 0 0 0 
-0.0195 0.120687 0.0285267 0 0 0 
-0.019 0.120687 0.0285267 0 0 0 
-0.0185 0.120693 0.0286538 0 0 0 
-0.018 0.120699 0.0287808 0 0 0 
-0.0175 0.120699 0.0287808 0 0 0 
-0.017 0.120705 0.0289078 0 0 0 
-0.0165 0.120705 0.0289078 0 0 0 
-0.016 0.120705 0.0289078 0 0 0 
-0.0155 0.120711 0.0290348 0 0 0 
-0.015 0.120705 0.0289078 0 0 0 
-0.0145 0.120705 0.0289078 0 0 0 
-0.014 0.120718 0.0291619 0 0 0 
-0.0135 0.120718 0.0291619 0 0 0 
-0.013 0.120711 0.0290348 0 0 0 
-0.0125 0.120711 0.0290348 0 0 0 
-0.012 0.120711 0.0290348 0 0 0 
-0.0115 0.120711 0.0290348 0 0 0 
-0.011 0.120711 0.0290348 0 0 0 
-0.0105 0.120711 0.0290348 0 0 0 
-0.01 0.120705 0.0289078 0 0 0 
-0.0095 0.120705 0.0289078 0 0 0 
-0.009 0.120705 0.0289078 0 0 0 
-0.0085 0.120705 0.0289078 0 0 0 
-0.008 0.120699 0.0287808 0 0 0 
-0.0075 0.120699 0.0287808 0 0 0 
-0.007 0.120693 0.0286538 0 0 0 
-0.0065 0.120693 0.0286538 0 0 0 
-0.006 0.120681 0.0283997 0 0 0 
-0.0055 0.120681 0.0283997 0 0 0 
-0.005 0.120675 0.0282727 0 0 0 
-0.0045 0.120669 0.0281456 0 0 0 
-0.004 0.120663 0.0280186 0 0 0 
-0.0035 0.120651 0.0277646 0 0 0 
-0.003 0.120645 0.0276375 0 0 0 
-0.0025 0.120633 0.0273835 0 0 0 
-0.002 0.120621 0.0271294 0 0 0 
-0.0015 0.120615 0.0270024 0 0 0 
-0.001 0.120603 0.0267483 0 0 0 
-0.0005 0.120591 0.0264943 0 0 0 
0 0.120585 0.0263672 0 0 0 
0.0005 0.120567 0.0259862 0 0 0 
0.001 0.120555 0.0257321 0 0 0 
0.0015 0.120549 0.0256051 0 0 0 
0.002 0.120543 0.025478 0 0 0 
0.0025 0.120531 0.025224 0 0 0 
0.003 0.120506 0.0247159 0 0 0 
0.0035 0.120488 0.0243348 0 0 0 
0.004 0.120476 0.0240807 0 0 0 
0.0045 0.120458 0.0236996 0 0 0 
0.005 0.12044 0.0233185 0 0 0 
0.0055 0.12041 0.0226834 0 0 0 
0.006 0.120392 0.0223023 0 0 0 
0.0065 0.120362 0.0216672 0 0 0 
0.007 0.120325 0.020905 0 0 0 
0.0075 0.120301 0.0203969 0 0 0 
0.008 0.120277 0.0198888 0 0 0 
0.0085 0.120181 0.0178563 0 0 0 
0.009 0.120163 0.0174752 0 0 0 
0.0095 0.12015 0.0172212 0 0 0 
0.01 0.120138 0.0169671 0 0 0 
0.0105 0.120126 0.016713 0 0 0 
0.011 0.120078 0.0156968 0 0 0 
0.0115 0.120048 0.0150617 0 0 0 
0.012 0.120024 0.0145536 0 0 0 
0.0125 0.119988 0.0137914 0 0 0 
0.013 0.119909 0.01214 0 0 0 
0.0135 0.119873 0.0113778 0 0 0 
0.014 0.119843 0.0107427 0 0 0 
0.0145 0.119825 0.0103616 0 0 0 
-0.05275 0.116895 -0.0706842 0 0 0 
-0.05225 0.116939 -0.0696861 0 0 0 
-0.05175 0.116991 -0.0685453 0 0 0 
-0.05125 0.11701 -0.0681175 0 0 0 
-0.05075 0.117029 -0.0676898 0 0 0 
-0.05025 0.117055 -0.0671194 0 0 0 
-0.04975 0.117061 -0.0669768 0 0 0 
-0.04925 0.11708 -0.066549 0 0 0 
-0.04875 0.117106 -0.0659786 0 0 0 
-0.04825 0.117125 -0.0655508 0 0 0 
-0.04775 0.117131 -0.0654083 0 0 0 
-0.04725 0.117138 -0.0652657 0 0 0 
-0.04675 0.117157 -0.0648379 0 0 0 
-0.04625 0.11717 -0.0645527 0 0 0 
-0.04575 0.117176 -0.0644101 0 0 0 
-0.04525 0.117176 -0.0644101 0 0 0 
-0.04475 0.117195 -0.0639823 0 0 0 
-0.04425 0.117202 -0.0638397 0 0 0 
-0.04375 0.117208 -0.0636971 0 0 0 
-0.04325 0.117215 -0.0635545 0 0 0 
-0.04275 0.117234 -0.0631268 0 0 0 
-0.04225 0.11724 -0.0629842 0 0 0 
-0.04175 0.117247 -0.0628416 0 0 0 
-0.04125 0.117259 -0.0625564 0 0 0 
-0.04075 0.117266 -0.0624138 0 0 0 
-0.04025 0.117272 -0.0622712 0 0 0 
-0.03975 0.117259 -0.0625564 0 0 0 
-0.03875 0.117432 -0.0587064 0 0 0 
-0.03825 0.120106 0.000648677 0 0 0 
-0.03775 0.1201 0.00051377 0 0 0 
-0.03725 0.120457 0.00833123 0 0 0 
-0.03675 0.120499 0.00922041 0 0 0 
-0.03625 0.120534 0.00998254 0 0 0 
-0.03575 0.120582 0.0109987 0 0 0 
-0.03525 0.120707 0.0136662 0 0 0 
-0.03475 0.120737 0.0143013 0 0 0 
-0.03425 0.120749 0.0145554 0 0 0 
-0.03375 0.120755 0.0146824 0 0 0 
-0.03325 0.120969 0.0192553 0 0 0 
-0.03275 0.121011 0.0201444 0 0 0 
-0.03225 0.12104 0.0207795 0 0 0 
-0.03175 0.121064 0.0212876 0 0 0 
-0.03125 0.121094 0.0219228 0 0 0 
-0.03075 0.121112 0.0223038 0 0 0 
-0.03025 0.121136 0.0228119 0 0 0 
-0.02975 0.121153 0.023193 0 0 0 
-0.02925 0.121171 0.0235741 0 0 0 
-0.02875 0.121189 0.0239551 0 0 0 
-0.02825 0.121201 0.0242092 0 0 0 
-0.02775 0.121219 0.0245902 0 0 0 
-0.02725 0.121231 0.0248443 0 0 0 
-0.02675 0.121249 0.0252254 0 0 0 
-0.02625 0.121255 0.0253524 0 0 0 
-0.02575 0.121273 0.0257334 0 0 0 
-0.02525 0.121284 0.0259875 0 0 0 
-0.02475 0.121296 0.0262415 0 0 0 
-0.02425 0.121308 0.0264956 0 0 0 
-0.02375 0.12132 0.0267496 0 0 0 
-0.02325 0.121332 0.0270037 0 0 0 
-0.02275 0.121344 0.0272577 0 0 0 
-0.02225 0.121344 0.0272577 0 0 0 
-0.02175 0.12135 0.0273848 0 0 0 
-0.02125 0.121356 0.0275118 0 0 0 
-0.02075 0.121356 0.0275118 0 0 0 
-0.02025 0.121362 0.0276388 0 0 0 
-0.01975 0.121362 0.0276388 0 0 0 
-0.01925 0.121368 0.0277658 0 0 0 
-0.01875 0.121368 0.0277658 0 0 0 
-0.01825 0.121374 0.0278929 0 0 0 
-0.01775 0.121374 0.0278929 0 0 0 
-0.01725 0.12138 0.0280199 0 0 0 
-0.01675 0.12138 0.0280199 0 0 0 
-0.01625 0.12138 0.0280199 0 0 0 
-0.01575 0.121386 0.0281469 0 0 0 
-0.01525 0.121386 0.0281469 0 0 0 
-0.01475 0.121392 0.0282739 0 0 0 
-0.01425 0.121392 0.0282739 0 0 0 
-0.01375 0.121392 0.0282739 0 0 0 
-0.01325 0.121392 0.0282739 0 0 0 
-0.01275 0.121386 0.0281469 0 0 0 
-0.01225 0.121392 0.0282739 0 0 0 
-0.01175 0.121392 0.0282739 0 0 0 
-0.01125 0.121398 0.028401 0 0 0 
-0.01075 0.121392 0.0282739 0 0 0 
-0.01025 0.121392 0.0282739 0 0 0 
-0.00975 0.121392 0.0282739 0 0 0 
-0.00925 0.121386 0.0281469 0 0 0 
-0.00875 0.121386 0.0281469 0 0 0 
-0.00825 0.121386 0.0281469 0 0 0 
-0.00775 0.12138 0.0280199 0 0 0 
-0.00725 0.121374 0.0278929 0 0 0 
-0.00675 0.121368 0.0277658 0 0 0 
-0.00625 0.121362 0.0276388 0 0 0 
-0.00575 0.121362 0.0276388 0 0 0 
-0.00525 0.121356 0.0275118 0 0 0 
-0.00475 0.12135 0.0273848 0 0 0 
-0.00425 0.121338 0.0271307 0 0 0 
-0.00375 0.121326 0.0268767 0 0 0 
-0.00325 0.12132 0.0267496 0 0 0 
-0.00275 0.121314 0.0266226 0 0 0 
-0.00225 0.121296 0.0262415 0 0 0 
-0.00175 0.12129 0.0261145 0 0 0 
-0.00125 0.121278 0.0258605 0 0 0 
-0.00075 0.121267 0.0256064 0 0 0 
-0.00025 0.121261 0.0254794 0 0 0 
0.00025 0.121249 0.0252254 0 0 0 
0.00075 0.121243 0.0250983 0 0 0 
0.00125 0.121237 0.0249713 0 0 0 
0.00175 0.121225 0.0247173 0 0 0 
0.00225 0.121207 0.0243362 0 0 0 
0.00275 0.121195 0.0240821 0 0 0 
0.00325 0.121177 0.0237011 0 0 0 
0.00375 0.121148 0.023066 0 0 0 
0.00425 0.12113 0.0226849 0 0 0 
0.00475 0.121112 0.0223038 0 0 0 
0.00525 0.121082 0.0216687 0 0 0 
0.00575 0.121052 0.0210336 0 0 0 
0.00625 0.121022 0.0203985 0 0 0 
0.00675 0.120999 0.0198904 0 0 0 
0.00725 0.120981 0.0195093 0 0 0 
0.00775 0.120963 0.0191282 0 0 0 
0.00825 0.12088 0.0173499 0 0 0 
0.00875 0.120868 0.0170958 0 0 0 
0.00925 0.12085 0.0167148 0 0 0 
0.00975 0.120838 0.0164607 0 0 0 
0.01025 0.120814 0.0159526 0 0 0 
0.01075 0.120778 0.0151905 0 0 0 
0.01125 0.120743 0.0144284 0 0 0 
0.01175 0.120713 0.0137933 0 0 0 
0.01225 0.120671 0.0129041 0 0 0 
0.01275 0.120594 0.0112528 0 0 0 
0.01325 0.120564 0.0106177 0 0 0 
0.01375 0.120511 0.00947445 0 0 0 
-0.0525 0.11772 -0.0693999 0 0 0 
-0.052 0.117758 -0.0685444 0 0 0 
-0.0515 0.117796 -0.0676888 0 0 0 
-0.051 0.117815 -0.0672611 0 0 0 
-0.0505 0.117834 -0.0668333 0 0 0 
-0.05 0.11784 -0.0666907 0 0 0 
-0.0495 0.117872 -0.0659777 0 0 0 
-0.049 0.117878 -0.0658352 0 0 0 
-0.0485 0.117897 -0.0654074 0 0 0 
-0.048 0.11791 -0.0651222 0 0 0 
-0.0475 0.117916 -0.0649796 0 0 0 
-0.047 0.117929 -0.0646944 0 0 0 
-0.0465 0.117941 -0.0644093 0 0 0 
-0.046 0.117954 -0.0641241 0 0 0 
-0.0455 0.117954 -0.0641241 0 0 0 
-0.045 0.117967 -0.0638389 0 0 0 
-0.0445 0.117973 -0.0636963 0 0 0 
-0.044 0.117986 -0.0634111 0 0 0 
-0.0435 0.117992 -0.0632685 0 0 0 
-0.043 0.118005 -0.0629833 0 0 0 
-0.0425 0.118011 -0.0628408 0 0 0 
-0.042 0.118024 -0.0625556 0 0 0 
-0.0415 0.118036 -0.0622704 0 0 0 
-0.041 0.118043 -0.0621278 0 0 0 
-0.0405 0.118049 -0.0619852 0 0 0 
-0.04 0.118049 -0.0619852 0 0 0 
-0.0395 0.118194 -0.0587056 0 0 0 
-0.039 0.118232 -0.0578501 0 0 0 
-0.0385 0.118245 -0.0575649 0 0 0 
-0.038 0.120809 -2.39238e-05 0 0 0 
-0.0375 0.120815 0.000110999 0 0 0 
-0.037 0.120797 -0.000293732 0 0 0 
-0.0365 0.121227 0.00922247 0 0 0 
-0.036 0.121262 0.00998458 0 0 0 
-0.0355 0.121286 0.0104926 0 0 0 
-0.035 0.12128 0.0103656 0 0 0 
-0.0345 0.121444 0.0139221 0 0 0 
-0.034 0.121456 0.0141762 0 0 0 
-0.0335 0.121479 0.0146843 0 0 0 
-0.033 0.121485 0.0148113 0 0 0 
-0.0325 0.121479 0.0146843 0 0 0 
-0.032 0.121726 0.020019 0 0 0 
-0.0315 0.121755 0.0206541 0 0 0 
-0.031 0.121779 0.0211622 0 0 0 
-0.0305 0.121802 0.0216702 0 0 0 
-0.03 0.12182 0.0220513 0 0 0 
-0.0295 0.121838 0.0224323 0 0 0 
-0.029 0.121861 0.0229404 0 0 0 
-0.0285 0.121873 0.0231945 0 0 0 
-0.028 0.121891 0.0235755 0 0 0 
-0.0275 0.121908 0.0239566 0 0 0 
-0.027 0.12192 0.0242106 0 0 0 
-0.0265 0.121938 0.0245917 0 0 0 
-0.026 0.121955 0.0249727 0 0 0 
-0.0255 0.121961 0.0250997 0 0 0 
-0.025 0.121967 0.0252267 0 0 0 
-0.0245 0.121979 0.0254808 0 0 0 
-0.024 0.12199 0.0257348 0 0 0 
-0.0235 0.121996 0.0258618 0 0 0 
-0.023 0.122002 0.0259889 0 0 0 
-0.0225 0.122014 0.0262429 0 0 0 
-0.022 0.12202 0.0263699 0 0 0 
-0.0215 0.122026 0.0264969 0 0 0 
-0.021 0.122032 0.0266239 0 0 0 
-0.0205 0.122037 0.026751 0 0 0 
-0.02 0.122037 0.026751 0 0 0 
-0.0195 0.122049 0.027005 0 0 0 
-0.019 0.122049 0.027005 0 0 0 
-0.0185 0.122049 0.027005 0 0 0 
-0.018 0.122055 0.027132 0 0 0 
-0.0175 0.122055 0.027132 0 0 0 
-0.017 0.122061 0.027259 0 0 0 
-0.0165 0.122061 0.027259 0 0 0 
-0.016 0.122061 0.027259 0 0 0 
-0.0155 0.122061 0.027259 0 0 0 
-0.015 0.122067 0.0273861 0 0 0 
-0.0145 0.122067 0.0273861 0 0 0 
-0.014 0.122067 0.0273861 0 0 0 
-0.0135 0.122073 0.0275131 0 0 0 
-0.013 0.122073 0.0275131 0 0 0 
-0.0125 0.122073 0.0275131 0 0 0 
-0.012 0.122073 0.0275131 0 0 0 
-0.0115 0.122073 0.0275131 0 0 0 
-0.011 0.122073 0.0275131 0 0 0 
-0.0105 0.122073 0.0275131 0 0 0 
-0.01 0.122073 0.0275131 0 0 0 
-0.0095 0.122067 0.0273861 0 0 0 
-0.009 0.122067 0.0273861 0 0 0 
-0.0085 0.122067 0.0273861 0 0 0 
-0.008 0.122061 0.027259 0 0 0 
-0.0075 0.122061 0.027259 0 0 0 
-0.007 0.122049 0.027005 0 0 0 
-0.0065 0.122043 0.026878 0 0 0 
-0.006 0.122043 0.026878 0 0 0 
-0.0055 0.122032 0.0266239 0 0 0 
-0.005 0.122026 0.0264969 0 0 0 
-0.0045 0.122008 0.0261159 0 0 0 
-0.004 0.122008 0.0261159 0 0 0 
-0.0035 0.121996 0.0258618 0 0 0 
-0.003 0.121985 0.0256078 0 0 0 
-0.0025 0.121973 0.0253538 0 0 0 
-0.002 0.121973 0.0253538 0 0 0 
-0.0015 0.121961 0.0250997 0 0 0 
-0.001 0.121955 0.0249727 0 0 0 
-0.0005 0.121949 0.0248457 0 0 0 
0 0.121938 0.0245917 0 0 0 
0.0005 0.12192 0.0242106 0 0 0 
0.001 0.121914 0.0240836 0 0 0 
0.0015 0.121902 0.0238295 0 0 0 
0.002 0.121879 0.0233215 0 0 0 
0.0025 0.121861 0.0229404 0 0 0 
0.003 0.121849 0.0226864 0 0 0 
0.0035 0.121832 0.0223053 0 0 0 
0.004 0.121808 0.0217973 0 0 0 
0.0045 0.121773 0.0210351 0 0 0 
0.005 0.121755 0.0206541 0 0 0 
0.0055 0.121732 0.020146 0 0 0 
0.006 0.121708 0.0196379 0 0 0 
0.0065 0.121697 0.0193839 0 0 0 
0.007 0.121679 0.0190029 0 0 0 
0.0075 0.12162 0.0177327 0 0 0 
0.008 0.121579 0.0168435 0 0 0 
0.0085 0.121568 0.0165895 0 0 0 
0.009 0.12155 0.0162084 0 0 0 
0.0095 0.121532 0.0158274 0 0 0 
0.01 0.121509 0.0153193 0 0 0 
0.0105 0.121468 0.0144302 0 0 0 
0.011 0.121427 0.0135411 0 0 0 
0.0115 0.121397 0.012906 0 0 0 
0.012 0.121315 0.0111277 0 0 0 
0.0125 0.12128 0.0103656 0 0 0 
0.013 0.121192 0.00846035 0 0 0 
-0.05275 0.118514 -0.0691162 0 0 0 
-0.05225 0.118539 -0.0685459 0 0 0 
-0.05175 0.118583 -0.0675477 0 0 0 
-0.05125 0.118601 -0.0671199 0 0 0 
-0.05075 0.11862 -0.0666922 0 0 0 
-0.05025 0.118639 -0.0662644 0 0 0 
-0.04975 0.118657 -0.0658366 0 0 0 
-0.04925 0.118676 -0.0654088 0 0 0 
-0.04875 0.118689 -0.0651236 0 0 0 
-0.04825 0.118695 -0.064981 0 0 0 
-0.04775 0.118701 -0.0648385 0 0 0 
-0.04725 0.118714 -0.0645533 0 0 0 
-0.04675 0.118726 -0.0642681 0 0 0 
-0.04625 0.118739 -0.0639829 0 0 0 
-0.04575 0.118745 -0.0638403 0 0 0 
-0.04525 0.118751 -0.0636977 0 0 0 
-0.04475 0.118764 -0.0634125 0 0 0 
-0.04425 0.11877 -0.06327 0 0 0 
-0.04375 0.118776 -0.0631274 0 0 0 
-0.04325 0.118788 -0.0628422 0 0 0 
-0.04275 0.118801 -0.062557 0 0 0 
-0.04225 0.118813 -0.0622718 0 0 0 
-0.04175 0.11882 -0.0621292 0 0 0 
-0.04125 0.118838 -0.0617014 0 0 0 
-0.04075 0.118845 -0.0615588 0 0 0 
-0.04025 0.118851 -0.0614162 0 0 0 
-0.03975 0.118976 -0.0585644 0 0 0 
-0.03925 0.119019 -0.0575662 0 0 0 
-0.03875 0.119044 -0.0569959 0 0 0 
-0.03825 0.119057 -0.0567107 0 0 0 
-0.03775 0.119063 -0.0565681 0 0 0 
-0.03725 0.121529 -0.000429474 0 0 0 
-0.03675 0.121517 -0.000699304 0 0 0 
-0.03625 0.121954 0.00909461 0 0 0 
-0.03575 0.121994 0.00998372 0 0 0 
-0.03525 0.122018 0.0104918 0 0 0 
-0.03475 0.122006 0.0102377 0 0 0 
-0.03425 0.122163 0.0136672 0 0 0 
-0.03375 0.122174 0.0139212 0 0 0 
-0.03325 0.122197 0.0144293 0 0 0 
-0.03275 0.122203 0.0145563 0 0 0 
-0.03225 0.122221 0.0149373 0 0 0 
-0.03175 0.122232 0.0151914 0 0 0 
-0.03125 0.122447 0.019891 0 0 0 
-0.03075 0.122453 0.020018 0 0 0 
-0.03025 0.122488 0.0207801 0 0 0 
-0.02975 0.122505 0.0211611 0 0 0 
-0.02925 0.122522 0.0215422 0 0 0 
-0.02875 0.122551 0.0221773 0 0 0 
-0.02825 0.122563 0.0224313 0 0 0 
-0.02775 0.122575 0.0226853 0 0 0 
-0.02725 0.122598 0.0231934 0 0 0 
-0.02675 0.122609 0.0234474 0 0 0 
-0.02625 0.122621 0.0237015 0 0 0 
-0.02575 0.122644 0.0242095 0 0 0 
-0.02525 0.12265 0.0243366 0 0 0 
-0.02475 0.122662 0.0245906 0 0 0 
-0.02425 0.122673 0.0248446 0 0 0 
-0.02375 0.122679 0.0249716 0 0 0 
-0.02325 0.122685 0.0250987 0 0 0 
-0.02275 0.122691 0.0252257 0 0 0 
-0.02225 0.122702 0.0254797 0 0 0 
-0.02175 0.122708 0.0256067 0 0 0 
-0.02125 0.122714 0.0257337 0 0 0 
-0.02075 0.12272 0.0258607 0 0 0 
-0.02025 0.122726 0.0259878 0 0 0 
-0.01975 0.122726 0.0259878 0 0 0 
-0.01925 0.122731 0.0261148 0 0 0 
-0.01875 0.122737 0.0262418 0 0 0 
-0.01825 0.122737 0.0262418 0 0 0 
-0.01775 0.122737 0.0262418 0 0 0 
-0.01725 0.122743 0.0263688 0 0 0 
-0.01675 0.122743 0.0263688 0 0 0 
-0.01625 0.122749 0.0264958 0 0 0 
-0.01575 0.122749 0.0264958 0 0 0 
-0.01525 0.122755 0.0266229 0 0 0 
-0.01475 0.122755 0.0266229 0 0 0 
-0.01425 0.122749 0.0264958 0 0 0 
-0.01375 0.122749 0.0264958 0 0 0 
-0.01325 0.122755 0.0266229 0 0 0 
-0.01275 0.122755 0.0266229 0 0 0 
-0.01225 0.122755 0.0266229 0 0 0 
-0.01175 0.122755 0.0266229 0 0 0 
-0.01125 0.122755 0.0266229 0 0 0 
-0.01075 0.122755 0.0266229 0 0 0 
-0.01025 0.122749 0.0264958 0 0 0 
-0.00975 0.122749 0.0264958 0 0 0 
-0.00925 0.122749 0.0264958 0 0 0 
-0.00875 0.122749 0.0264958 0 0 0 
-0.00825 0.122737 0.0262418 0 0 0 
-0.00775 0.122737 0.0262418 0 0 0 
-0.00725 0.122737 0.0262418 0 0 0 
-0.00675 0.122731 0.0261148 0 0 0 
-0.00625 0.122726 0.0259878 0 0 0 
-0.00575 0.122714 0.0257337 0 0 0 
-0.00525 0.122708 0.0256067 0 0 0 
-0.00475 0.122697 0.0253527 0 0 0 
-0.00425 0.122691 0.0252257 0 0 0 
-0.00375 0.122679 0.0249716 0 0 0 
-0.00325 0.122673 0.0248446 0 0 0 
-0.00275 0.122668 0.0247176 0 0 0 
-0.00225 0.122662 0.0245906 0 0 0 
-0.00175 0.122656 0.0244636 0 0 0 
-0.00125 0.12265 0.0243366 0 0 0 
-0.00075 0.122639 0.0240825 0 0 0 
-0.00025 0.122627 0.0238285 0 0 0 
0.00025 0.122615 0.0235745 0 0 0 
0.00075 0.122604 0.0233204 0 0 0 
0.00125 0.122592 0.0230664 0 0 0 
0.00175 0.122563 0.0224313 0 0 0 
0.00225 0.122546 0.0220503 0 0 0 
0.00275 0.122528 0.0216692 0 0 0 
0.00325 0.122499 0.0210341 0 0 0 
0.00375 0.122482 0.0206531 0 0 0 
0.00425 0.122453 0.020018 0 0 0 
0.00475 0.122441 0.019764 0 0 0 
0.00525 0.12243 0.0195099 0 0 0 
0.00575 0.122406 0.0190019 0 0 0 
0.00625 0.122389 0.0186208 0 0 0 
0.00675 0.122354 0.0178587 0 0 0 
0.00725 0.122308 0.0168426 0 0 0 
0.00775 0.122284 0.0163345 0 0 0 
0.00825 0.122273 0.0160805 0 0 0 
0.00875 0.12225 0.0155724 0 0 0 
0.00925 0.122232 0.0151914 0 0 0 
0.00975 0.12218 0.0140482 0 0 0 
0.01025 0.122139 0.0131591 0 0 0 
0.01075 0.12211 0.012524 0 0 0 
0.01125 0.12207 0.0116349 0 0 0 
0.01175 0.122018 0.0104918 0 0 0 
-0.053 0.119283 -0.069403 0 0 0 
-0.0525 0.119332 -0.0682622 0 0 0 
-0.052 0.119357 -0.0676918 0 0 0 
-0.0515 0.119388 -0.0669788 0 0 0 
-0.051 0.119406 -0.066551 0 0 0 
-0.0505 0.119424 -0.0661233 0 0 0 
-0.05 0.119437 -0.0658381 0 0 0 
-0.0495 0.119455 -0.0654103 0 0 0 
-0.049 0.119468 -0.0651251 0 0 0 
-0.0485 0.11948 -0.0648399 0 0 0 
-0.048 0.119486 -0.0646973 0 0 0 
-0.0475 0.119498 -0.0644121 0 0 0 
-0.047 0.119511 -0.0641269 0 0 0 
-0.0465 0.119523 -0.0638417 0 0 0 
-0.046 0.119529 -0.0636991 0 0 0 
-0.0455 0.119529 -0.0636991 0 0 0 
-0.045 0.119541 -0.0634139 0 0 0 
-0.0445 0.119554 -0.0631288 0 0 0 
-0.044 0.11956 -0.0629862 0 0 0 
-0.0435 0.119566 -0.0628436 0 0 0 
-0.043 0.119578 -0.0625584 0 0 0 
-0.0425 0.119597 -0.0621306 0 0 0 
-0.042 0.119603 -0.061988 0 0 0 
-0.0415 0.119615 -0.0617028 0 0 0 
-0.041 0.11964 -0.0611324 0 0 0 
-0.0405 0.119671 -0.0604194 0 0 0 
-0.04 0.119744 -0.0587083 0 0 0 
-0.0395 0.119806 -0.0572824 0 0 0 
-0.039 0.119824 -0.0568546 0 0 0 
-0.0385 0.119843 -0.0564268 0 0 0 
-0.038 0.119861 -0.055999 0 0 0 
-0.0375 0.11988 -0.0555712 0 0 0 
-0.037 0.119874 -0.0557138 0 0 0 
-0.0365 0.122233 -0.00123978 0 0 0 
-0.0355 0.122715 0.00972882 0 0 0 
-0.035 0.122732 0.0101099 0 0 0 
-0.0345 0.122744 0.0103639 0 0 0 
-0.034 0.122876 0.0132852 0 0 0 
-0.0335 0.122893 0.0136663 0 0 0 
-0.033 0.12291 0.0140473 0 0 0 
-0.0325 0.122927 0.0144284 0 0 0 
-0.032 0.122944 0.0148094 0 0 0 
-0.0315 0.122962 0.0151904 0 0 0 
-0.031 0.122962 0.0151904 0 0 0 
-0.0305 0.122962 0.0151904 0 0 0 
-0.03 0.123174 0.01989 0 0 0 
-0.0295 0.123185 0.020144 0 0 0 
-0.029 0.123202 0.0205251 0 0 0 
-0.0285 0.123231 0.0211601 0 0 0 
-0.028 0.123243 0.0214142 0 0 0 
-0.0275 0.123266 0.0219222 0 0 0 
-0.027 0.123288 0.0224303 0 0 0 
-0.0265 0.1233 0.0226843 0 0 0 
-0.026 0.123317 0.0230653 0 0 0 
-0.0255 0.123329 0.0233194 0 0 0 
-0.025 0.123346 0.0237004 0 0 0 
-0.0245 0.123357 0.0239544 0 0 0 
-0.024 0.123369 0.0242085 0 0 0 
-0.0235 0.123374 0.0243355 0 0 0 
-0.023 0.12338 0.0244625 0 0 0 
-0.0225 0.123386 0.0245895 0 0 0 
-0.022 0.123392 0.0247165 0 0 0 
-0.0215 0.123397 0.0248435 0 0 0 
-0.021 0.123403 0.0249706 0 0 0 
-0.0205 0.123409 0.0250976 0 0 0 
-0.02 0.123409 0.0250976 0 0 0 
-0.0195 0.12342 0.0253516 0 0 0 
-0.019 0.123415 0.0252246 0 0 0 
-0.0185 0.12342 0.0253516 0 0 0 
-0.018 0.123426 0.0254786 0 0 0 
-0.0175 0.123426 0.0254786 0 0 0 
-0.017 0.123432 0.0256056 0 0 0 
-0.0165 0.123432 0.0256056 0 0 0 
-0.016 0.123438 0.0257326 0 0 0 
-0.0155 0.123438 0.0257326 0 0 0 
-0.015 0.123438 0.0257326 0 0 0 
-0.0145 0.123432 0.0256056 0 0 0 
-0.014 0.123438 0.0257326 0 0 0 
-0.0135 0.123443 0.0258597 0 0 0 
-0.013 0.123438 0.0257326 0 0 0 
-0.0125 0.123432 0.0256056 0 0 0 
-0.012 0.123438 0.0257326 0 0 0 
-0.0115 0.123438 0.0257326 0 0 0 
-0.011 0.123438 0.0257326 0 0 0 
-0.0105 0.123438 0.0257326 0 0 0 
-0.01 0.123432 0.0256056 0 0 0 
-0.0095 0.123432 0.0256056 0 0 0 
-0.009 0.123432 0.0256056 0 0 0 
-0.0085 0.12342 0.0253516 0 0 0 
-0.008 0.123426 0.0254786 0 0 0 
-0.0075 0.12342 0.0253516 0 0 0 
-0.007 0.12342 0.0253516 0 0 0 
-0.0065 0.123409 0.0250976 0 0 0 
-0.006 0.123397 0.0248435 0 0 0 
-0.0055 0.123397 0.0248435 0 0 0 
-0.005 0.123386 0.0245895 0 0 0 
-0.0045 0.123386 0.0245895 0 0 0 
-0.004 0.123374 0.0243355 0 0 0 
-0.0035 0.123369 0.0242085 0 0 0 
-0.003 0.123363 0.0240815 0 0 0 
-0.0025 0.123357 0.0239544 0 0 0 
-0.002 0.123346 0.0237004 0 0 0 
-0.0015 0.123334 0.0234464 0 0 0 
-0.001 0.123329 0.0233194 0 0 0 
-0.0005 0.123317 0.0230653 0 0 0 
0 0.1233 0.0226843 0 0 0 
0.0005 0.123288 0.0224303 0 0 0 
0.001 0.123271 0.0220492 0 0 0 
0.0015 0.123254 0.0216682 0 0 0 
0.002 0.123225 0.0210331 0 0 0 
0.0025 0.123202 0.0205251 0 0 0 
0.003 0.123185 0.020144 0 0 0 
0.0035 0.123174 0.01989 0 0 0 
0.004 0.123151 0.0193819 0 0 0 
0.0045 0.123139 0.0191279 0 0 0 
0.005 0.123116 0.0186198 0 0 0 
0.0055 0.123099 0.0182388 0 0 0 
0.006 0.123076 0.0177307 0 0 0 
0.0065 0.12303 0.0167146 0 0 0 
0.007 0.122996 0.0159525 0 0 0 
0.0075 0.12299 0.0158255 0 0 0 
0.008 0.122962 0.0151904 0 0 0 
0.0085 0.12295 0.0149364 0 0 0 
0.009 0.122881 0.0134122 0 0 0 
0.0095 0.122847 0.0126502 0 0 0 
0.01 0.122824 0.0121421 0 0 0 
0.0105 0.122784 0.011253 0 0 0 
0.011 0.122761 0.0107449 0 0 0 
-0.05325 0.120046 -0.0698323 0 0 0 
-0.05275 0.120101 -0.0685489 0 0 0 
-0.05225 0.120125 -0.0679785 0 0 0 
-0.05175 0.120161 -0.0671229 0 0 0 
-0.05125 0.120186 -0.0665525 0 0 0 
-0.05075 0.120198 -0.0662673 0 0 0 
-0.05025 0.120216 -0.0658395 0 0 0 
-0.04975 0.120234 -0.0654117 0 0 0 
-0.04925 0.120246 -0.0651265 0 0 0 
-0.04875 0.120258 -0.0648414 0 0 0 
-0.04825 0.120265 -0.0646987 0 0 0 
-0.04775 0.120277 -0.0644136 0 0 0 
-0.04725 0.120289 -0.0641284 0 0 0 
-0.04675 0.120295 -0.0639858 0 0 0 
-0.04625 0.120307 -0.0637006 0 0 0 
-0.04575 0.120313 -0.063558 0 0 0 
-0.04525 0.120319 -0.0634154 0 0 0 
-0.04475 0.120331 -0.0631302 0 0 0 
-0.04425 0.120337 -0.0629876 0 0 0 
-0.04375 0.120349 -0.0627024 0 0 0 
-0.04325 0.120362 -0.0624172 0 0 0 
-0.04275 0.12038 -0.0619894 0 0 0 
-0.04225 0.12038 -0.0619894 0 0 0 
-0.04175 0.120404 -0.061419 0 0 0 
-0.04125 0.120428 -0.0608486 0 0 0 
-0.04075 0.120453 -0.0602782 0 0 0 
-0.04025 0.120525 -0.0585671 0 0 0 
-0.03975 0.120562 -0.0577115 0 0 0 
-0.03925 0.120604 -0.0567133 0 0 0 
-0.03875 0.120616 -0.0564281 0 0 0 
-0.03825 0.120641 -0.0558577 0 0 0 
-0.03775 0.120665 -0.0552873 0 0 0 
-0.03725 0.120677 -0.0550021 0 0 0 
-0.03675 0.120677 -0.0550021 0 0 0 
-0.03475 0.123442 0.00960097 0 0 0 
-0.03425 0.12347 0.010236 0 0 0 
-0.03375 0.123476 0.010363 0 0 0 
-0.03325 0.123612 0.0134113 0 0 0 
-0.03275 0.123629 0.0137924 0 0 0 
-0.03225 0.123646 0.0141734 0 0 0 
-0.03175 0.123663 0.0145545 0 0 0 
-0.03125 0.12368 0.0149355 0 0 0 
-0.03075 0.123691 0.0151895 0 0 0 
-0.03025 0.123702 0.0154435 0 0 0 
-0.02975 0.123714 0.0156976 0 0 0 
-0.02925 0.123742 0.0163326 0 0 0 
-0.02875 0.123759 0.0167137 0 0 0 
-0.02825 0.123901 0.019889 0 0 0 
-0.02775 0.123923 0.020397 0 0 0 
-0.02725 0.123946 0.0209051 0 0 0 
-0.02675 0.123974 0.0215402 0 0 0 
-0.02625 0.123986 0.0217942 0 0 0 
-0.02575 0.123997 0.0220482 0 0 0 
-0.02525 0.124014 0.0224293 0 0 0 
-0.02475 0.124036 0.0229373 0 0 0 
-0.02425 0.124048 0.0231913 0 0 0 
-0.02375 0.124059 0.0234453 0 0 0 
-0.02325 0.124065 0.0235724 0 0 0 
-0.02275 0.12407 0.0236994 0 0 0 
-0.02225 0.124076 0.0238264 0 0 0 
-0.02175 0.124082 0.0239534 0 0 0 
-0.02125 0.124087 0.0240804 0 0 0 
-0.02075 0.124099 0.0243344 0 0 0 
-0.02025 0.124093 0.0242074 0 0 0 
-0.01975 0.124099 0.0243344 0 0 0 
-0.01925 0.124099 0.0243344 0 0 0 
-0.01875 0.124104 0.0244614 0 0 0 
-0.01825 0.12411 0.0245885 0 0 0 
-0.01775 0.12411 0.0245885 0 0 0 
-0.01725 0.124116 0.0247155 0 0 0 
-0.01675 0.124116 0.0247155 0 0 0 
-0.01625 0.124116 0.0247155 0 0 0 
-0.01575 0.124121 0.0248425 0 0 0 
-0.01525 0.124121 0.0248425 0 0 0 
-0.01475 0.124121 0.0248425 0 0 0 
-0.01425 0.124127 0.0249695 0 0 0 
-0.01375 0.124121 0.0248425 0 0 0 
-0.01325 0.124121 0.0248425 0 0 0 
-0.01275 0.124121 0.0248425 0 0 0 
-0.01225 0.124121 0.0248425 0 0 0 
-0.01175 0.124121 0.0248425 0 0 0 
-0.01125 0.124121 0.0248425 0 0 0 
-0.01075 0.124121 0.0248425 0 0 0 
-0.01025 0.124121 0.0248425 0 0 0 
-0.00975 0.124116 0.0247155 0 0 0 
-0.00925 0.12411 0.0245885 0 0 0 
-0.00875 0.12411 0.0245885 0 0 0 
-0.00825 0.124104 0.0244614 0 0 0 
-0.00775 0.124099 0.0243344 0 0 0 
-0.00725 0.124093 0.0242074 0 0 0 
-0.00675 0.124093 0.0242074 0 0 0 
-0.00625 0.124087 0.0240804 0 0 0 
-0.00575 0.124082 0.0239534 0 0 0 
-0.00525 0.12407 0.0236994 0 0 0 
-0.00475 0.12407 0.0236994 0 0 0 
-0.00425 0.124065 0.0235724 0 0 0 
-0.00375 0.124059 0.0234453 0 0 0 
-0.00325 0.124048 0.0231913 0 0 0 
-0.00275 0.124042 0.0230643 0 0 0 
-0.00225 0.124031 0.0228103 0 0 0 
-0.00175 0.124025 0.0226833 0 0 0 
-0.00125 0.12402 0.0225562 0 0 0 
-0.00075 0.124003 0.0221752 0 0 0 
-0.00025 0.123991 0.0219212 0 0 0 
0.00025 0.123969 0.0214131 0 0 0 
0.00075 0.123957 0.0211591 0 0 0 
0.00125 0.123935 0.0206511 0 0 0 
0.00175 0.123912 0.020143 0 0 0 
0.00225 0.123889 0.019635 0 0 0 
0.00275 0.123878 0.0193809 0 0 0 
0.00325 0.123855 0.0188729 0 0 0 
0.00375 0.123844 0.0186189 0 0 0 
0.00425 0.123827 0.0182378 0 0 0 
0.00475 0.123816 0.0179838 0 0 0 
0.00525 0.123787 0.0173487 0 0 0 
0.00575 0.123742 0.0163326 0 0 0 
0.00625 0.123702 0.0154435 0 0 0 
0.00675 0.123691 0.0151895 0 0 0 
0.00725 0.123674 0.0148085 0 0 0 
0.00775 0.123595 0.0130303 0 0 0 
0.00825 0.123532 0.0116332 0 0 0 
0.00875 0.12343 0.00934693 0 0 0 
0.00925 0.12347 0.010236 0 0 0 
0.00975 0.123487 0.0106171 0 0 0 
0.01025 0.122799 -0.00528795 0 0 0 
0.01075 0.122805 -0.00515305 0 0 0 
0.01175 0.121271 -0.0410275 0 0 0 
-0.054 0.12072 -0.0724006 0 0 0 
-0.0535 0.120828 -0.0698338 0 0 0 
-0.053 0.120864 -0.0689782 0 0 0 
-0.0525 0.120888 -0.0684078 0 0 0 
-0.052 0.120924 -0.0675522 0 0 0 
-0.0515 0.120953 -0.0668392 0 0 0 
-0.051 0.120965 -0.066554 0 0 0 
-0.0505 0.120989 -0.0659836 0 0 0 
-0.05 0.121007 -0.0655558 0 0 0 
-0.0495 0.121019 -0.0652706 0 0 0 
-0.049 0.121031 -0.0649854 0 0 0 
-0.0485 0.121043 -0.0647002 0 0 0 
-0.048 0.121049 -0.0645576 0 0 0 
-0.0475 0.121061 -0.0642724 0 0 0 
-0.047 0.121073 -0.0639872 0 0 0 
-0.0465 0.121085 -0.063702 0 0 0 
-0.046 0.121091 -0.0635594 0 0 0 
-0.0455 0.121103 -0.0632742 0 0 0 
-0.045 0.121109 -0.0631316 0 0 0 
-0.0445 0.121115 -0.062989 0 0 0 
-0.044 0.121127 -0.0627038 0 0 0 
-0.0435 0.121139 -0.0624186 0 0 0 
-0.043 0.121157 -0.0619908 0 0 0 
-0.0425 0.121163 -0.0618482 0 0 0 
-0.042 0.121175 -0.061563 0 0 0 
-0.0415 0.121211 -0.0607074 0 0 0 
-0.041 0.12124 -0.0599944 0 0 0 
-0.0405 0.121294 -0.058711 0 0 0 
-0.04 0.121336 -0.0577128 0 0 0 
-0.0395 0.121378 -0.0567146 0 0 0 
-0.039 0.121396 -0.0562868 0 0 0 
-0.0385 0.121414 -0.055859 0 0 0 
-0.038 0.121438 -0.0552886 0 0 0 
-0.0375 0.121456 -0.0548608 0 0 0 
-0.037 0.12148 -0.0542904 0 0 0 
-0.0365 0.121497 -0.0538626 0 0 0 
-0.036 0.121503 -0.05372 0 0 0 
-0.0355 0.121521 -0.0532922 0 0 0 
-0.034 0.124185 0.00985413 0 0 0 
-0.0335 0.124197 0.0101082 0 0 0 
-0.033 0.12432 0.0129024 0 0 0 
-0.0325 0.124336 0.0132834 0 0 0 
-0.032 0.124364 0.0139185 0 0 0 
-0.0315 0.124381 0.0142995 0 0 0 
-0.031 0.124398 0.0146806 0 0 0 
-0.0305 0.124415 0.0150616 0 0 0 
-0.03 0.12442 0.0151886 0 0 0 
-0.0295 0.124437 0.0155696 0 0 0 
-0.029 0.124465 0.0162047 0 0 0 
-0.0285 0.124482 0.0165857 0 0 0 
-0.028 0.12451 0.0172208 0 0 0 
-0.0275 0.124527 0.0176018 0 0 0 
-0.027 0.124543 0.0179828 0 0 0 
-0.0265 0.12456 0.0183639 0 0 0 
-0.026 0.124633 0.020015 0 0 0 
-0.0255 0.124689 0.0212851 0 0 0 
-0.025 0.1247 0.0215391 0 0 0 
-0.0245 0.124722 0.0220472 0 0 0 
-0.024 0.124728 0.0221742 0 0 0 
-0.0235 0.124739 0.0224282 0 0 0 
-0.023 0.12475 0.0226822 0 0 0 
-0.0225 0.124762 0.0229363 0 0 0 
-0.022 0.124767 0.0230633 0 0 0 
-0.0215 0.124773 0.0231903 0 0 0 
-0.021 0.124773 0.0231903 0 0 0 
-0.0205 0.124778 0.0233173 0 0 0 
-0.02 0.124784 0.0234443 0 0 0 
-0.0195 0.124784 0.0234443 0 0 0 
-0.019 0.124784 0.0234443 0 0 0 
-0.0185 0.124795 0.0236983 0 0 0 
-0.018 0.12479 0.0235713 0 0 0 
-0.0175 0.124795 0.0236983 0 0 0 
-0.017 0.124795 0.0236983 0 0 0 
-0.0165 0.124801 0.0238253 0 0 0 
-0.016 0.124801 0.0238253 0 0 0 
-0.0155 0.124801 0.0238253 0 0 0 
-0.015 0.124801 0.0238253 0 0 0 
-0.0145 0.124801 0.0238253 0 0 0 
-0.014 0.124806 0.0239523 0 0 0 
-0.0135 0.124806 0.0239523 0 0 0 
-0.013 0.124801 0.0238253 0 0 0 
-0.0125 0.124801 0.0238253 0 0 0 
-0.012 0.124801 0.0238253 0 0 0 
-0.0115 0.124806 0.0239523 0 0 0 
-0.011 0.124801 0.0238253 0 0 0 
-0.0105 0.124801 0.0238253 0 0 0 
-0.01 0.124795 0.0236983 0 0 0 
-0.0095 0.124795 0.0236983 0 0 0 
-0.009 0.124795 0.0236983 0 0 0 
-0.0085 0.124784 0.0234443 0 0 0 
-0.008 0.124784 0.0234443 0 0 0 
-0.0075 0.124778 0.0233173 0 0 0 
-0.007 0.124773 0.0231903 0 0 0 
-0.0065 0.124767 0.0230633 0 0 0 
-0.006 0.124767 0.0230633 0 0 0 
-0.0055 0.124756 0.0228092 0 0 0 
-0.005 0.124756 0.0228092 0 0 0 
-0.0045 0.12475 0.0226822 0 0 0 
-0.004 0.124745 0.0225552 0 0 0 
-0.0035 0.124734 0.0223012 0 0 0 
-0.003 0.124728 0.0221742 0 0 0 
-0.0025 0.124722 0.0220472 0 0 0 
-0.002 0.124717 0.0219202 0 0 0 
-0.0015 0.124694 0.0214121 0 0 0 
-0.001 0.124689 0.0212851 0 0 0 
-0.0005 0.124678 0.0210311 0 0 0 
0 0.124661 0.0206501 0 0 0 
0.0005 0.124639 0.020142 0 0 0 
0.001 0.124622 0.019761 0 0 0 
0.0015 0.124599 0.0192529 0 0 0 
0.002 0.124577 0.0187449 0 0 0 
0.0025 0.124566 0.0184909 0 0 0 
0.003 0.124538 0.0178558 0 0 0 
0.0035 0.124527 0.0176018 0 0 0 
0.004 0.124499 0.0169668 0 0 0 
0.0045 0.124465 0.0162047 0 0 0 
0.005 0.124381 0.0142995 0 0 0 
0.0055 0.124381 0.0142995 0 0 0 
0.006 0.124359 0.0137915 0 0 0 
0.0065 0.124297 0.0123944 0 0 0 
0.007 0.124269 0.0117593 0 0 0 
0.0075 0.124197 0.0101082 0 0 0 
0.008 0.124191 0.00998115 0 0 0 
0.0085 0.124157 0.00921909 0 0 0 
0.009 0.124034 0.00642485 0 0 0 
0.0095 0.124018 0.0060438 0 0 0 
0.01 0.123557 -0.00488406 0 0 0 
0.0105 0.123557 -0.00488406 0 0 0 
0.0115 0.122012 -0.041599 0 0 0 
-0.05375 0.12148 -0.0729726 0 0 0 
-0.05325 0.121633 -0.0692649 0 0 0 
-0.05275 0.121663 -0.0685519 0 0 0 
-0.05225 0.121674 -0.0682667 0 0 0 
-0.05175 0.121716 -0.0672685 0 0 0 
-0.05125 0.121739 -0.0666981 0 0 0 
-0.05075 0.121751 -0.0664129 0 0 0 
-0.05025 0.12178 -0.0656998 0 0 0 
-0.04975 0.121786 -0.0655572 0 0 0 
-0.04925 0.121798 -0.065272 0 0 0 
-0.04875 0.12181 -0.0649868 0 0 0 
-0.04825 0.121822 -0.0647016 0 0 0 
-0.04775 0.121834 -0.0644164 0 0 0 
-0.04725 0.121845 -0.0641312 0 0 0 
-0.04675 0.121851 -0.0639886 0 0 0 
-0.04625 0.121869 -0.0635608 0 0 0 
-0.04575 0.121875 -0.0634182 0 0 0 
-0.04525 0.121887 -0.063133 0 0 0 
-0.04475 0.121892 -0.0629904 0 0 0 
-0.04425 0.121898 -0.0628478 0 0 0 
-0.04375 0.121916 -0.06242 0 0 0 
-0.04325 0.121928 -0.0621348 0 0 0 
-0.04275 0.121945 -0.061707 0 0 0 
-0.04225 0.121957 -0.0614218 0 0 0 
-0.04175 0.121969 -0.0611366 0 0 0 
-0.04125 0.122028 -0.0597105 0 0 0 
-0.04075 0.122057 -0.0589975 0 0 0 
-0.04025 0.122105 -0.0578567 0 0 0 
-0.03975 0.122152 -0.0567159 0 0 0 
-0.03925 0.122175 -0.0561455 0 0 0 
-0.03875 0.122187 -0.0558603 0 0 0 
-0.03825 0.122205 -0.0554325 0 0 0 
-0.03775 0.122234 -0.0547194 0 0 0 
-0.03725 0.122246 -0.0544343 0 0 0 
-0.03675 0.122275 -0.0537212 0 0 0 
-0.03625 0.122293 -0.0532934 0 0 0 
-0.03575 0.122311 -0.0528656 0 0 0 
-0.03525 0.122317 -0.052723 0 0 0 
-0.03475 0.122323 -0.0525804 0 0 0 
-0.03425 0.122317 -0.052723 0 0 0 
-0.03275 0.124918 0.00985328 0 0 0 
-0.03225 0.124901 0.00947226 0 0 0 
-0.03175 0.125072 0.0134095 0 0 0 
-0.03125 0.125083 0.0136636 0 0 0 
-0.03075 0.125111 0.0142986 0 0 0 
-0.03025 0.125122 0.0145526 0 0 0 
-0.02975 0.125133 0.0148066 0 0 0 
-0.02925 0.125155 0.0153147 0 0 0 
-0.02875 0.125177 0.0158227 0 0 0 
-0.02825 0.125199 0.0163307 0 0 0 
-0.02775 0.125216 0.0167118 0 0 0 
-0.02725 0.125233 0.0170928 0 0 0 
-0.02675 0.125249 0.0174738 0 0 0 
-0.02625 0.12526 0.0177278 0 0 0 
-0.02575 0.125266 0.0178549 0 0 0 
-0.02525 0.125271 0.0179819 0 0 0 
-0.02475 0.125282 0.0182359 0 0 0 
-0.02425 0.125393 0.0207761 0 0 0 
-0.02375 0.125409 0.0211571 0 0 0 
-0.02325 0.12542 0.0214111 0 0 0 
-0.02275 0.125431 0.0216651 0 0 0 
-0.02225 0.125443 0.0219191 0 0 0 
-0.02175 0.125454 0.0221732 0 0 0 
-0.02125 0.125448 0.0220462 0 0 0 
-0.02075 0.125459 0.0223002 0 0 0 
-0.02025 0.125459 0.0223002 0 0 0 
-0.01975 0.125459 0.0223002 0 0 0 
-0.01925 0.125465 0.0224272 0 0 0 
-0.01875 0.125465 0.0224272 0 0 0 
-0.01825 0.12547 0.0225542 0 0 0 
-0.01775 0.125476 0.0226812 0 0 0 
-0.01725 0.125476 0.0226812 0 0 0 
-0.01675 0.125476 0.0226812 0 0 0 
-0.01625 0.125481 0.0228082 0 0 0 
-0.01575 0.125481 0.0228082 0 0 0 
-0.01525 0.125481 0.0228082 0 0 0 
-0.01475 0.125481 0.0228082 0 0 0 
-0.01425 0.125476 0.0226812 0 0 0 
-0.01375 0.125481 0.0228082 0 0 0 
-0.01325 0.125487 0.0229352 0 0 0 
-0.01275 0.125481 0.0228082 0 0 0 
-0.01225 0.125481 0.0228082 0 0 0 
-0.01175 0.125481 0.0228082 0 0 0 
-0.01125 0.125487 0.0229352 0 0 0 
-0.01075 0.125487 0.0229352 0 0 0 
-0.01025 0.125481 0.0228082 0 0 0 
-0.00975 0.125476 0.0226812 0 0 0 
-0.00925 0.12547 0.0225542 0 0 0 
-0.00875 0.125465 0.0224272 0 0 0 
-0.00825 0.12547 0.0225542 0 0 0 
-0.00775 0.125459 0.0223002 0 0 0 
-0.00725 0.125459 0.0223002 0 0 0 
-0.00675 0.125454 0.0221732 0 0 0 
-0.00625 0.125448 0.0220462 0 0 0 
-0.00575 0.125443 0.0219191 0 0 0 
-0.00525 0.125437 0.0217921 0 0 0 
-0.00475 0.125431 0.0216651 0 0 0 
-0.00425 0.125426 0.0215381 0 0 0 
-0.00375 0.12542 0.0214111 0 0 0 
-0.00325 0.125415 0.0212841 0 0 0 
-0.00275 0.125404 0.0210301 0 0 0 
-0.00225 0.125404 0.0210301 0 0 0 
