ply
format ascii 1.0
element vertex 1333
property float x
property float y
property float z
property float nx
property float ny
property float nz
end_header
0.0494445 0.160965 0.00701266 0 0 0 
0.0505736 0.161666 0.00611535 0 0 0 
0.0519402 0.16259 0.00482751 0 0 0 
0.0655133 0.16106 0.0217961 0 0 0 
0.0656906 0.16088 0.0224626 0 0 0 
0.0653325 0.160204 0.0240088 0 0 0 
0.0654501 0.15997 0.0247733 0 0 0 
0.0653896 0.159569 0.0258306 0 0 0 
0.0652697 0.159113 0.0269856 0 0 0 
0.0653873 0.158879 0.0277501 0 0 0 
0.0653268 0.158478 0.0288074 0 0 0 
0.0655041 0.158298 0.0294739 0 0 0 
0.0656217 0.158064 0.0302384 0 0 0 
0.065799 0.157884 0.0309049 0 0 0 
0.065917 0.157648 0.031669 0 0 0 
0.066094 0.157469 0.0323359 0 0 0 
0.0662713 0.157289 0.0330023 0 0 0 
0.066508 0.157165 0.0335712 0 0 0 
0.0666854 0.156985 0.0342376 0 0 0 
0.0668627 0.156805 0.0349041 0 0 0 
0.0670994 0.15668 0.035473 0 0 0 
0.0673361 0.156556 0.0360418 0 0 0 
0.0675731 0.15643 0.0366104 0 0 0 
0.0678099 0.156306 0.0371792 0 0 0 
0.0679872 0.156126 0.0378457 0 0 0 
0.0682239 0.156001 0.0384146 0 0 0 
0.06852 0.155932 0.0388858 0 0 0 
0.0687567 0.155807 0.0394547 0 0 0 
0.0689934 0.155683 0.0400235 0 0 0 
0.0692898 0.155613 0.0404944 0 0 0 
0.0694671 0.155433 0.0411609 0 0 0 
0.0697038 0.155308 0.0417298 0 0 0 
0.0699406 0.155184 0.0422986 0 0 0 
0.0701179 0.155004 0.0429651 0 0 0 
0.0702355 0.154769 0.0437296 0 0 0 
0.0704722 0.154645 0.0442985 0 0 0 
0.0706496 0.154465 0.0449649 0 0 0 
0.070946 0.154395 0.0454358 0 0 0 
0.0712421 0.154326 0.045907 0 0 0 
0.0715384 0.154255 0.046378 0 0 0 
0.0719536 0.154296 0.0466536 0 0 0 
0.0723688 0.154337 0.0469292 0 0 0 
0.0728434 0.154433 0.0471072 0 0 0 
0.0733773 0.154584 0.0471875 0 0 0 
0.0739116 0.154735 0.0472675 0 0 0 
0.0744459 0.154886 0.0473476 0 0 0 
0.0746826 0.154761 0.0479164 0 0 0 
0.0298442 0.157243 0.00125886 0 0 0 
0.0297837 0.156842 0.00231621 0 0 0 
0.0299016 0.156607 0.00308037 0 0 0 
0.030079 0.156427 0.00374685 0 0 0 
0.030316 0.156301 0.00431533 0 0 0 
0.0305527 0.156177 0.00488414 0 0 0 
0.0308491 0.156107 0.0053551 0 0 0 
0.0312046 0.156093 0.00572866 0 0 0 
0.0315604 0.156078 0.00610188 0 0 0 
0.0319162 0.156063 0.00647517 0 0 0 
0.0323314 0.156104 0.00675079 0 0 0 
0.0327466 0.156145 0.00702641 0 0 0 
0.0331618 0.156186 0.00730203 0 0 0 
0.033577 0.156226 0.00757765 0 0 0 
0.0340515 0.156322 0.00775561 0 0 0 
0.0344073 0.156308 0.0081289 0 0 0 
0.0348819 0.156404 0.00830685 0 0 0 
0.0352971 0.156444 0.00858247 0 0 0 
0.0357716 0.15654 0.0087605 0 0 0 
0.0362465 0.156636 0.00893819 0 0 0 
0.0367211 0.156732 0.00911614 0 0 0 
0.0371957 0.156828 0.0092941 0 0 0 
0.0377299 0.156978 0.00937419 0 0 0 
0.0382045 0.157074 0.00955215 0 0 0 
0.0387385 0.157226 0.00963251 0 0 0 
0.0393321 0.157432 0.00961493 0 0 0 
0.039866 0.157583 0.00969529 0 0 0 
0.0404003 0.157734 0.00977531 0 0 0 
0.0409937 0.157941 0.00975801 0 0 0 
0.0415873 0.158146 0.00974043 0 0 0 
0.042181 0.158352 0.00972278 0 0 0 
0.0427743 0.158559 0.00970555 0 0 0 
0.043368 0.158765 0.0096879 0 0 0 
0.044021 0.159027 0.00957266 0 0 0 
0.0446741 0.159288 0.00945742 0 0 0 
0.0453865 0.159605 0.00924458 0 0 0 
0.0461583 0.159977 0.00893408 0 0 0 
0.0469898 0.160403 0.00852557 0 0 0 
0.0477616 0.160775 0.00821506 0 0 0 
0.0487712 0.161368 0.00751377 0 0 0 
0.0500188 0.162181 0.00642154 0 0 0 
0.0512069 0.162939 0.0054269 0 0 0 
0.0656125 0.161833 0.0219859 0 0 0 
0.0658492 0.161709 0.0225548 0 0 0 
0.0654915 0.161032 0.0241006 0 0 0 
0.0654313 0.160631 0.0251576 0 0 0 
0.0654301 0.160286 0.0261174 0 0 0 
0.0653102 0.15983 0.0272723 0 0 0 
0.0653093 0.159484 0.0282317 0 0 0 
0.0653676 0.159194 0.0290937 0 0 0 
0.0654856 0.158958 0.0298579 0 0 0 
0.0656035 0.158723 0.030622 0 0 0 
0.0657214 0.158488 0.0313861 0 0 0 
0.0658394 0.158252 0.0321502 0 0 0 
0.0660761 0.158128 0.0327191 0 0 0 
0.0661941 0.157893 0.0334832 0 0 0 
0.0663714 0.157713 0.0341497 0 0 0 
0.0666084 0.157587 0.0347182 0 0 0 
0.0667857 0.157407 0.0353847 0 0 0 
0.066963 0.157227 0.0360512 0 0 0 
0.0671998 0.157103 0.03662 0 0 0 
0.0674368 0.156977 0.0371886 0 0 0 
0.0676735 0.156853 0.0377574 0 0 0 
0.0679102 0.156728 0.0383263 0 0 0 
0.0682066 0.156658 0.0387972 0 0 0 
0.0683839 0.156478 0.0394636 0 0 0 
0.0686207 0.156354 0.0400325 0 0 0 
0.0688577 0.156228 0.040601 0 0 0 
0.0690944 0.156104 0.0411698 0 0 0 
0.0693311 0.155979 0.0417387 0 0 0 
0.0695087 0.155798 0.0424049 0 0 0 
0.0697455 0.155674 0.0429737 0 0 0 
0.0699822 0.155549 0.0435426 0 0 0 
0.0701595 0.155369 0.044209 0 0 0 
0.0703965 0.155244 0.0447775 0 0 0 
0.0705145 0.155008 0.0455416 0 0 0 
0.0707512 0.154884 0.0461105 0 0 0 
0.0710476 0.154814 0.0465814 0 0 0 
0.0713437 0.154744 0.0470526 0 0 0 
0.0716995 0.15473 0.0474258 0 0 0 
0.0721741 0.154826 0.0476039 0 0 0 
0.0726487 0.154922 0.0477818 0 0 0 
0.0731235 0.155017 0.0479595 0 0 0 
0.0737169 0.155224 0.0479422 0 0 0 
0.0741914 0.15532 0.0481202 0 0 0 
0.0744285 0.155195 0.0486887 0 0 0 
0.0289345 0.157422 0.00214932 0 0 0 
0.028993 0.157131 0.00301107 0 0 0 
0.0290516 0.15684 0.00387281 0 0 0 
0.0292886 0.156715 0.00444129 0 0 0 
0.0295847 0.156646 0.00491251 0 0 0 
0.0298217 0.15652 0.00548106 0 0 0 
0.0301776 0.156506 0.00585428 0 0 0 
0.0305333 0.156491 0.00622757 0 0 0 
0.0308892 0.156476 0.00660078 0 0 0 
0.0313043 0.156517 0.00687641 0 0 0 
0.0316598 0.156503 0.00725004 0 0 0 
0.0321347 0.156598 0.00742765 0 0 0 
0.0325499 0.156639 0.00770327 0 0 0 
0.0329054 0.156625 0.0080769 0 0 0 
0.0333803 0.15672 0.00825452 0 0 0 
0.0337954 0.156761 0.00853014 0 0 0 
0.0342106 0.156802 0.00880576 0 0 0 
0.0346852 0.156898 0.00898379 0 0 0 
0.0351004 0.156938 0.00925941 0 0 0 
0.0356343 0.15709 0.00933977 0 0 0 
0.0360495 0.157131 0.00961539 0 0 0 
0.0365834 0.157282 0.00969576 0 0 0 
0.0371177 0.157433 0.00977577 0 0 0 
0.0375923 0.157529 0.00995373 0 0 0 
0.0381263 0.15768 0.0100341 0 0 0 
0.0387196 0.157887 0.0100169 0 0 0 
0.0392538 0.158038 0.0100969 0 0 0 
0.0398472 0.158244 0.0100796 0 0 0 
0.0403814 0.158395 0.0101597 0 0 0 
0.0409748 0.158602 0.0101424 0 0 0 
0.0415088 0.158753 0.0102227 0 0 0 
0.0421618 0.159014 0.0101075 0 0 0 
0.0427551 0.159221 0.0100902 0 0 0 
0.0434082 0.159483 0.009975 0 0 0 
0.0440612 0.159744 0.00985976 0 0 0 
0.0447139 0.160006 0.00974486 0 0 0 
0.0455451 0.160434 0.00933676 0 0 0 
0.0463169 0.160806 0.00902626 0 0 0 
0.0471481 0.161233 0.00861817 0 0 0 
0.0482172 0.161881 0.00781913 0 0 0 
0.049405 0.16264 0.00682491 0 0 0 
0.0503549 0.163178 0.00622156 0 0 0 
0.065591 0.161805 0.0242901 0 0 0 
0.0655902 0.161459 0.0252495 0 0 0 
0.06553 0.161058 0.0263065 0 0 0 
0.0655885 0.160767 0.0271682 0 0 0 
0.0652905 0.160145 0.028616 0 0 0 
0.0653494 0.159853 0.0294774 0 0 0 
0.0654673 0.159618 0.0302416 0 0 0 
0.0655853 0.159383 0.0310056 0 0 0 
0.0657626 0.159203 0.0316721 0 0 0 
0.0658809 0.158966 0.0324359 0 0 0 
0.0660582 0.158786 0.0331024 0 0 0 
0.0661761 0.158551 0.0338665 0 0 0 
0.0663538 0.15837 0.0345326 0 0 0 
0.0665311 0.15819 0.0351991 0 0 0 
0.0667088 0.15801 0.0358652 0 0 0 
0.0669455 0.157885 0.0364341 0 0 0 
0.0671231 0.157704 0.0371002 0 0 0 
0.0673598 0.15758 0.0376691 0 0 0 
0.0675968 0.157454 0.0382376 0 0 0 
0.0677742 0.157274 0.038904 0 0 0 
0.0680706 0.157204 0.0393749 0 0 0 
0.068248 0.157024 0.0400414 0 0 0 
0.068485 0.156899 0.0406099 0 0 0 
0.0687217 0.156774 0.0411788 0 0 0 
0.0688993 0.156593 0.0418449 0 0 0 
0.0691361 0.156469 0.0424137 0 0 0 
0.0694325 0.156399 0.0428846 0 0 0 
0.0696098 0.156219 0.0435511 0 0 0 
0.0697875 0.156038 0.0442172 0 0 0 
0.0700241 0.155913 0.0447861 0 0 0 
0.0702018 0.155733 0.0454522 0 0 0 
0.0703792 0.155553 0.0461187 0 0 0 
0.0705568 0.155372 0.0467848 0 0 0 
0.0708529 0.155303 0.047256 0 0 0 
0.0711493 0.155232 0.0477269 0 0 0 
0.0715051 0.155218 0.0481002 0 0 0 
0.0719203 0.155258 0.0483758 0 0 0 
0.0723949 0.155355 0.0485538 0 0 0 
0.0729288 0.155506 0.0486342 0 0 0 
0.0734631 0.155657 0.0487142 0 0 0 
0.0739376 0.155753 0.0488922 0 0 0 
0.0742337 0.155683 0.0493634 0 0 0 
0.028204 0.158112 0.00178716 0 0 0 
0.0280844 0.157656 0.00294184 0 0 0 
0.0281433 0.157364 0.00380317 0 0 0 
0.0283206 0.157184 0.00446965 0 0 0 
0.0285576 0.157059 0.00503821 0 0 0 
0.028854 0.156988 0.00550909 0 0 0 
0.0291505 0.156918 0.0059799 0 0 0 
0.0295063 0.156904 0.00635319 0 0 0 
0.0298621 0.156889 0.0067264 0 0 0 
0.0302179 0.156874 0.00709969 0 0 0 
0.0306331 0.156915 0.00737531 0 0 0 
0.0310482 0.156956 0.00765094 0 0 0 
0.0314037 0.156942 0.00802449 0 0 0 
0.031938 0.157092 0.00810451 0 0 0 
0.0323532 0.157133 0.00838013 0 0 0 
0.0327684 0.157174 0.00865575 0 0 0 
0.0331836 0.157215 0.00893138 0 0 0 
0.0335987 0.157255 0.009207 0 0 0 
0.0340733 0.157351 0.00938503 0 0 0 
0.0345479 0.157447 0.00956298 0 0 0 
0.0349631 0.157488 0.0098386 0 0 0 
0.0354376 0.157584 0.0100166 0 0 0 
0.0359716 0.157736 0.010097 0 0 0 
0.0365055 0.157887 0.0101774 0 0 0 
0.0369801 0.157983 0.0103554 0 0 0 
0.037514 0.158134 0.0104357 0 0 0 
0.0381077 0.15834 0.0104181 0 0 0 
0.0386416 0.158492 0.0104985 0 0 0 
0.039235 0.158699 0.0104812 0 0 0 
0.0397689 0.15885 0.0105616 0 0 0 
0.0403622 0.159057 0.0105444 0 0 0 
0.0408965 0.159208 0.0106244 0 0 0 
0.0415492 0.15947 0.0105095 0 0 0 
0.0421426 0.159677 0.0104922 0 0 0 
0.0427359 0.159883 0.0104749 0 0 0 
0.043389 0.160145 0.0103597 0 0 0 
0.0441604 0.160518 0.0100496 0 0 0 
0.0448131 0.16078 0.00993471 0 0 0 
0.0456443 0.161207 0.00952662 0 0 0 
0.0465943 0.161745 0.00892318 0 0 0 
0.0476033 0.16234 0.00822258 0 0 0 
0.0487314 0.163044 0.00732637 0 0 0 
0.0498001 0.163693 0.00652775 0 0 0 
0.0659875 0.162855 0.0239914 0 0 0 
0.0656898 0.162232 0.0254389 0 0 0 
0.0655705 0.161774 0.0265931 0 0 0 
0.0656884 0.161539 0.0273573 0 0 0 
0.0655692 0.161081 0.0285116 0 0 0 
0.0653902 0.160569 0.0297638 0 0 0 
0.0655085 0.160333 0.0305276 0 0 0 
0.0655671 0.160042 0.0313892 0 0 0 
0.0656259 0.15975 0.0322506 0 0 0 
0.0658626 0.159626 0.0328195 0 0 0 
0.0659809 0.15939 0.0335833 0 0 0 
0.066218 0.159264 0.0341517 0 0 0 
0.0663359 0.159029 0.0349159 0 0 0 
0.0665729 0.158903 0.0354844 0 0 0 
0.0666912 0.158667 0.0362481 0 0 0 
0.0668685 0.158487 0.0369146 0 0 0 
0.0671056 0.158362 0.0374831 0 0 0 
0.0672832 0.158181 0.0381492 0 0 0 
0.0675202 0.158056 0.0387178 0 0 0 
0.0676976 0.157876 0.0393842 0 0 0 
0.0679346 0.15775 0.0399527 0 0 0 
0.0681717 0.157625 0.0405212 0 0 0 
0.0683493 0.157444 0.0411873 0 0 0 
0.068586 0.157319 0.0417562 0 0 0 
0.068823 0.157194 0.0423247 0 0 0 
0.0690007 0.157013 0.0429909 0 0 0 
0.0692374 0.156888 0.0435597 0 0 0 
0.069415 0.156708 0.0442258 0 0 0 
0.0696521 0.156582 0.0447943 0 0 0 
0.0698297 0.156401 0.0454604 0 0 0 
0.0700071 0.156221 0.0461269 0 0 0 
0.0702441 0.156096 0.0466954 0 0 0 
0.0704218 0.155915 0.0473615 0 0 0 
0.0706588 0.15579 0.0479301 0 0 0 
0.0708955 0.155665 0.0484989 0 0 0 
0.0713107 0.155706 0.0487745 0 0 0 
0.0717259 0.155747 0.0490502 0 0 0 
0.0722005 0.155843 0.0492281 0 0 0 
0.0727347 0.155993 0.0493082 0 0 0 
0.0732686 0.156145 0.0493886 0 0 0 
0.0738026 0.156296 0.0494689 0 0 0 
0.0740396 0.156171 0.0500374 0 0 0 
0.0272351 0.158235 0.00277495 0 0 0 
0.0272347 0.157888 0.00373394 0 0 0 
0.0273529 0.157652 0.00449768 0 0 0 
0.02759 0.157527 0.00506616 0 0 0 
0.0278864 0.157457 0.00553704 0 0 0 
0.0281234 0.157331 0.00610551 0 0 0 
0.0284199 0.157261 0.0065764 0 0 0 
0.028835 0.157302 0.00685202 0 0 0 
0.0291314 0.157232 0.0073229 0 0 0 
0.0295466 0.157272 0.00759852 0 0 0 
0.0299618 0.157313 0.00787415 0 0 0 
0.030377 0.157354 0.00814977 0 0 0 
0.0307922 0.157395 0.00842539 0 0 0 
0.0312074 0.157435 0.00870101 0 0 0 
0.0316819 0.157531 0.00887904 0 0 0 
0.0321565 0.157627 0.00905699 0 0 0 
0.0325123 0.157613 0.00943029 0 0 0 
0.0329869 0.157709 0.00960824 0 0 0 
0.0334021 0.157749 0.00988386 0 0 0 
0.0338766 0.157845 0.0100619 0 0 0 
0.0343512 0.157942 0.0102398 0 0 0 
0.0348257 0.158038 0.0104179 0 0 0 
0.0353597 0.158189 0.0104982 0 0 0 
0.0358342 0.158285 0.0106763 0 0 0 
0.0363682 0.158437 0.0107566 0 0 0 
0.0369021 0.158588 0.010837 0 0 0 
0.0374955 0.158795 0.0108198 0 0 0 
0.0380294 0.158946 0.0109001 0 0 0 
0.0385634 0.159098 0.0109805 0 0 0 
0.0391567 0.159305 0.0109632 0 0 0 
0.0397501 0.159511 0.0109459 0 0 0 
0.040284 0.159663 0.0110263 0 0 0 
0.0408773 0.15987 0.0110091 0 0 0 
0.0415301 0.160132 0.0108942 0 0 0 
0.0421234 0.160339 0.0108769 0 0 0 
0.0427761 0.160601 0.010762 0 0 0 
0.0434882 0.160918 0.0105495 0 0 0 
0.0442003 0.161236 0.0103371 0 0 0 
0.0449718 0.161609 0.0100269 0 0 0 
0.0459811 0.162202 0.00932594 0 0 0 
0.0469307 0.162742 0.00872293 0 0 0 
0.0479991 0.163391 0.00792465 0 0 0 
0.0491269 0.164097 0.00702879 0 0 0 
0.0660269 0.163226 0.0252379 0 0 0 
0.0657295 0.162602 0.026685 0 0 0 
0.0657883 0.162311 0.0275464 0 0 0 
0.0657878 0.161964 0.0285054 0 0 0 
0.0656686 0.161506 0.0296596 0 0 0 
0.0654306 0.160938 0.0310092 0 0 0 
0.0655488 0.160701 0.0317729 0 0 0 
0.0656671 0.160465 0.0325366 0 0 0 
0.0658447 0.160284 0.0332028 0 0 0 
0.065963 0.160048 0.0339665 0 0 0 
0.0661407 0.159867 0.0346327 0 0 0 
0.0663183 0.159687 0.0352988 0 0 0 
0.066496 0.159506 0.0359649 0 0 0 
0.0666142 0.159269 0.0367287 0 0 0 
0.0667919 0.159089 0.0373948 0 0 0 
0.0669696 0.158908 0.0380609 0 0 0 
0.0672066 0.158782 0.0386294 0 0 0 
0.0673842 0.158602 0.0392955 0 0 0 
0.0676212 0.158476 0.0398641 0 0 0 
0.0678583 0.158351 0.0404325 0 0 0 
0.0680359 0.15817 0.0410987 0 0 0 
0.0682133 0.15799 0.0417651 0 0 0 
0.0684503 0.157864 0.0423336 0 0 0 
0.0686874 0.157739 0.0429021 0 0 0 
0.068865 0.157558 0.0435683 0 0 0 
0.0691021 0.157433 0.0441367 0 0 0 
0.0692797 0.157252 0.0448029 0 0 0 
0.0694573 0.157071 0.045469 0 0 0 
0.0696944 0.156946 0.0460375 0 0 0 
0.069872 0.156765 0.0467036 0 0 0 
0.0700497 0.156584 0.0473698 0 0 0 
0.0702274 0.156403 0.0480359 0 0 0 
0.0704644 0.156278 0.0486044 0 0 0 
0.0707608 0.156208 0.0490752 0 0 0 
0.0711166 0.156193 0.0494485 0 0 0 
0.0715318 0.156234 0.0497241 0 0 0 
0.0720064 0.15633 0.0499021 0 0 0 
0.0725403 0.156481 0.0499825 0 0 0 
0.0730742 0.156633 0.0500629 0 0 0 
0.0736082 0.156784 0.0501432 0 0 0 
0.0738452 0.156659 0.0507117 0 0 0 
0.0266234 0.159037 0.00221753 0 0 0 
0.0263857 0.158467 0.00356671 0 0 0 
0.0264446 0.158176 0.00442804 0 0 0 
0.0265629 0.15794 0.00519177 0 0 0 
0.0268002 0.157813 0.00575998 0 0 0 
0.0271561 0.157799 0.0061332 0 0 0 
0.0273931 0.157673 0.00670167 0 0 0 
0.0277489 0.157658 0.00707496 0 0 0 
0.0281641 0.157699 0.00735058 0 0 0 
0.0285199 0.157684 0.0077238 0 0 0 
0.0288757 0.15767 0.00809701 0 0 0 
0.0292909 0.15771 0.00837264 0 0 0 
0.0297654 0.157806 0.00855067 0 0 0 
0.0301213 0.157792 0.00892388 0 0 0 
0.0305958 0.157888 0.00910191 0 0 0 
0.0310703 0.157984 0.00927994 0 0 0 
0.0314855 0.158025 0.00955556 0 0 0 
0.0319007 0.158065 0.00983118 0 0 0 
0.0323753 0.158161 0.0100091 0 0 0 
0.0327905 0.158202 0.0102848 0 0 0 
0.033265 0.158298 0.0104628 0 0 0 
0.033799 0.15845 0.0105431 0 0 0 
0.0342735 0.158546 0.0107212 0 0 0 
0.0347481 0.158642 0.0108991 0 0 0 
0.0352227 0.158738 0.0110772 0 0 0 
0.0358157 0.158945 0.0110602 0 0 0 
0.0363496 0.159097 0.0111406 0 0 0 
0.0368242 0.159193 0.0113186 0 0 0 
0.0374175 0.1594 0.0113014 0 0 0 
0.0379515 0.159551 0.0113817 0 0 0 
0.0385448 0.159758 0.0113645 0 0 0 
0.0390788 0.159909 0.0114448 0 0 0 
0.0396718 0.160117 0.011428 0 0 0 
0.0402651 0.160324 0.0114106 0 0 0 
0.0408585 0.160531 0.0113934 0 0 0 
0.0415112 0.160793 0.0112785 0 0 0 
0.0421635 0.161056 0.011164 0 0 0 
0.0428163 0.161318 0.0110491 0 0 0 
0.0435877 0.161691 0.0107391 0 0 0 
0.0444183 0.16212 0.0103316 0 0 0 
0.0451898 0.162493 0.0100215 0 0 0 
0.0463172 0.163199 0.00912596 0 0 0 
0.047445 0.163905 0.00823009 0 0 0 
0.0483943 0.164445 0.00762742 0 0 0 
0.0663041 0.163818 0.0260934 0 0 0 
0.0658288 0.163027 0.0278331 0 0 0 
0.0659471 0.162791 0.0285969 0 0 0 
0.0658282 0.162332 0.0297508 0 0 0 
0.0657089 0.161875 0.030905 0 0 0 
0.06559 0.161416 0.0320589 0 0 0 
0.0657083 0.16118 0.0328226 0 0 0 
0.0658266 0.160944 0.0335864 0 0 0 
0.0659451 0.160707 0.0343498 0 0 0 
0.0661228 0.160526 0.0350159 0 0 0 
0.0662411 0.16029 0.0357796 0 0 0 
0.066419 0.160108 0.0364454 0 0 0 
0.0665373 0.159872 0.0372092 0 0 0 
0.0667149 0.159691 0.0378753 0 0 0 
0.0668926 0.15951 0.0385414 0 0 0 
0.0671299 0.159384 0.0391096 0 0 0 
0.0672482 0.159148 0.0398733 0 0 0 
0.0674853 0.159022 0.0404418 0 0 0 
0.0677223 0.158897 0.0410104 0 0 0 
0.0678409 0.15866 0.0417737 0 0 0 
0.0680779 0.158534 0.0423422 0 0 0 
0.068315 0.158409 0.0429107 0 0 0 
0.068552 0.158283 0.0434792 0 0 0 
0.0687297 0.158103 0.0441453 0 0 0 
0.068967 0.157976 0.0447135 0 0 0 
0.0690853 0.15774 0.0454772 0 0 0 
0.0693223 0.157615 0.0460458 0 0 0 
0.0695 0.157434 0.0467118 0 0 0 
0.0696779 0.157252 0.0473776 0 0 0 
0.069915 0.157127 0.0479461 0 0 0 
0.0700926 0.156946 0.0486122 0 0 0 
0.0703297 0.15682 0.0491807 0 0 0 
0.0706261 0.15675 0.0496516 0 0 0 
0.0709819 0.156736 0.0500249 0 0 0 
0.0713971 0.156776 0.0503005 0 0 0 
0.0718122 0.156817 0.0505761 0 0 0 
0.0723462 0.156968 0.0506565 0 0 0 
0.0728801 0.15712 0.0507369 0 0 0 
0.0734141 0.157271 0.0508172 0 0 0 
0.0737105 0.157201 0.0512881 0 0 0 
0.0253587 0.15888 0.00369233 0 0 0 
0.0255364 0.158699 0.00435839 0 0 0 
0.0256549 0.158462 0.00512179 0 0 0 
0.0258326 0.158281 0.00578793 0 0 0 
0.0261293 0.15821 0.00625847 0 0 0 
0.0263664 0.158085 0.00682695 0 0 0 
0.0267222 0.15807 0.00720016 0 0 0 
0.027078 0.158056 0.00757345 0 0 0 
0.0274341 0.15804 0.00794632 0 0 0 
0.0278493 0.158081 0.00822195 0 0 0 
0.028205 0.158066 0.00859524 0 0 0 
0.0286202 0.158107 0.00887086 0 0 0 
0.0290354 0.158147 0.00914648 0 0 0 
0.02951 0.158243 0.00932444 0 0 0 
0.0299252 0.158284 0.00960006 0 0 0 
0.0303994 0.158381 0.00977843 0 0 0 
0.0308146 0.158422 0.0100541 0 0 0 
0.0312892 0.158518 0.010232 0 0 0 
0.0317637 0.158614 0.01041 0 0 0 
0.0322383 0.15871 0.0105881 0 0 0 
0.0326535 0.158751 0.0108637 0 0 0 
0.0331281 0.158847 0.0110416 0 0 0 
0.033662 0.158998 0.011122 0 0 0 
0.0341363 0.159095 0.0113004 0 0 0 
0.0346702 0.159247 0.0113807 0 0 0 
0.0351448 0.159343 0.0115588 0 0 0 
0.0357381 0.159549 0.0115415 0 0 0 
0.0362717 0.159702 0.0116222 0 0 0 
0.0367463 0.159798 0.0118002 0 0 0 
0.0373396 0.160005 0.011783 0 0 0 
0.0379329 0.160211 0.0117657 0 0 0 
0.0384666 0.160364 0.0118464 0 0 0 
0.0391193 0.160626 0.0117315 0 0 0 
0.0396529 0.160778 0.0118123 0 0 0 
0.0402462 0.160985 0.0117951 0 0 0 
0.0408989 0.161247 0.0116802 0 0 0 
0.0415514 0.16151 0.0115656 0 0 0 
0.0422631 0.161829 0.0113535 0 0 0 
0.0429752 0.162146 0.011141 0 0 0 
0.0438058 0.162576 0.0107336 0 0 0 
0.0445175 0.162894 0.0105214 0 0 0 
0.0457634 0.163712 0.00943105 0 0 0 
0.0468315 0.164362 0.00863312 0 0 0 
0.047662 0.164792 0.0082257 0 0 0 
0.0489673 0.165665 0.00703767 0 0 0 
0.0659878 0.163855 0.027925 0 0 0 
0.0662251 0.163729 0.0284931 0 0 0 
0.0659875 0.16316 0.0298422 0 0 0 
0.0661654 0.162978 0.030508 0 0 0 
0.0657496 0.162243 0.0321501 0 0 0 
0.0657494 0.161895 0.0331086 0 0 0 
0.065868 0.161658 0.033872 0 0 0 
0.0659866 0.161421 0.0346354 0 0 0 
0.0661049 0.161184 0.0353992 0 0 0 
0.0662235 0.160947 0.0361626 0 0 0 
0.066342 0.16071 0.036926 0 0 0 
0.0665791 0.160585 0.0374945 0 0 0 
0.0666383 0.160292 0.0383555 0 0 0 
0.0668754 0.160167 0.038924 0 0 0 
0.066994 0.15993 0.0396874 0 0 0 
0.067231 0.159804 0.0402559 0 0 0 
0.0673496 0.159567 0.0410193 0 0 0 
0.0675272 0.159387 0.0416854 0 0 0 
0.0677052 0.159205 0.0423512 0 0 0 
0.0679422 0.159079 0.0429196 0 0 0 
0.0681202 0.158898 0.0435854 0 0 0 
0.0683572 0.158772 0.0441539 0 0 0 
0.0685946 0.158646 0.0447221 0 0 0 
0.0687129 0.15841 0.0454858 0 0 0 
0.0689503 0.158283 0.0460539 0 0 0 
0.0691279 0.158103 0.0467201 0 0 0 
0.0693059 0.157921 0.0473858 0 0 0 
0.0695429 0.157795 0.0479543 0 0 0 
0.0697209 0.157614 0.0486201 0 0 0 
0.0699579 0.157488 0.0491886 0 0 0 
0.0701359 0.157307 0.0498543 0 0 0 
0.0704323 0.157237 0.0503252 0 0 0 
0.0707881 0.157222 0.0506984 0 0 0 
0.0712033 0.157263 0.0509741 0 0 0 
0.0716779 0.157359 0.0511521 0 0 0 
0.0722118 0.15751 0.0512325 0 0 0 
0.0727455 0.157662 0.0513132 0 0 0 
0.07322 0.157758 0.0514912 0 0 0 
0.0735164 0.157688 0.0519621 0 0 0 
0.0248654 0.159793 0.00293999 0 0 0 
0.0246874 0.159278 0.00419116 0 0 0 
0.024747 0.158985 0.0050518 0 0 0 
0.0249246 0.158804 0.00571795 0 0 0 
0.025162 0.158678 0.00628608 0 0 0 
0.0253399 0.158496 0.00695188 0 0 0 
0.0256363 0.158426 0.00742276 0 0 0 
0.0259922 0.158411 0.00779598 0 0 0 
0.0264073 0.158452 0.0080716 0 0 0 
0.0267635 0.158436 0.00844447 0 0 0 
0.0271787 0.158477 0.00872009 0 0 0 
0.0275938 0.158518 0.00899572 0 0 0 
0.028009 0.158558 0.00927134 0 0 0 
0.0284242 0.158599 0.00954696 0 0 0 
0.0288394 0.15864 0.00982258 0 0 0 
0.0293136 0.158737 0.010001 0 0 0 
0.0297288 0.158777 0.0102766 0 0 0 
0.0302034 0.158873 0.0104546 0 0 0 
0.0306185 0.158914 0.0107302 0 0 0 
0.0310931 0.15901 0.0109082 0 0 0 
0.0315677 0.159106 0.0110862 0 0 0 
0.0320423 0.159202 0.0112642 0 0 0 
0.0325165 0.159299 0.0114425 0 0 0 
0.0330505 0.159451 0.0115229 0 0 0 
0.033525 0.159547 0.0117009 0 0 0 
0.0340586 0.159699 0.0117816 0 0 0 
0.0345332 0.159795 0.0119597 0 0 0 
0.0351266 0.160002 0.0119424 0 0 0 
0.0356602 0.160154 0.0120231 0 0 0 
0.0361941 0.160306 0.0121035 0 0 0 
0.0367277 0.160458 0.0121842 0 0 0 
0.0373211 0.160665 0.012167 0 0 0 
0.0379141 0.160873 0.0121501 0 0 0 
0.0385074 0.161079 0.0121328 0 0 0 
0.039041 0.161232 0.0122135 0 0 0 
0.0396343 0.161439 0.0121963 0 0 0 
0.0402273 0.161646 0.0121794 0 0 0 
0.0409391 0.161965 0.0119673 0 0 0 
0.0416509 0.162283 0.0117551 0 0 0 
0.0423033 0.162546 0.0116406 0 0 0 
0.0431932 0.163031 0.0111356 0 0 0 
0.043964 0.163405 0.0108262 0 0 0 
0.0450912 0.164112 0.00993098 0 0 0 
0.0461589 0.164764 0.00913347 0 0 0 
0.0470485 0.165249 0.00862881 0 0 0 
0.0484128 0.166179 0.00734352 0 0 0 
0.0663841 0.164557 0.028585 0 0 0 
0.0661467 0.163987 0.0299337 0 0 0 
0.0663247 0.163805 0.0305995 0 0 0 
0.0662651 0.163402 0.0316558 0 0 0 
0.06585 0.162665 0.033297 0 0 0 
0.0659091 0.162372 0.0341581 0 0 0 
0.0660278 0.162135 0.0349214 0 0 0 
0.066087 0.161843 0.0357825 0 0 0 
0.0662056 0.161606 0.0365459 0 0 0 
0.0663836 0.161424 0.0372116 0 0 0 
0.0665021 0.161187 0.037975 0 0 0 
0.0666207 0.16095 0.0387384 0 0 0 
0.0667393 0.160713 0.0395018 0 0 0 
0.0669767 0.160587 0.0400699 0 0 0 
0.0670953 0.16035 0.0408333 0 0 0 
0.0672732 0.160168 0.0414991 0 0 0 
0.0674512 0.159986 0.0421648 0 0 0 
0.0676289 0.159805 0.042831 0 0 0 
0.0678069 0.159624 0.0434967 0 0 0 
0.0679848 0.159442 0.0441625 0 0 0 
0.0682222 0.159316 0.0447306 0 0 0 
0.0683999 0.159135 0.0453967 0 0 0 
0.0685778 0.158953 0.0460625 0 0 0 
0.0687558 0.158771 0.0467283 0 0 0 
0.0689932 0.158645 0.0472964 0 0 0 
0.0691118 0.158408 0.0480598 0 0 0 
0.0692894 0.158227 0.0487259 0 0 0 
0.0695268 0.158101 0.049294 0 0 0 
0.0697048 0.157919 0.0499598 0 0 0 
0.0700012 0.157849 0.0504306 0 0 0 
0.0702385 0.157723 0.0509989 0 0 0 
0.0705944 0.157708 0.0513721 0 0 0 
0.0710095 0.157749 0.0516477 0 0 0 
0.0715435 0.1579 0.0517281 0 0 0 
0.0720177 0.157997 0.0519064 0 0 0 
0.0725517 0.158149 0.0519868 0 0 0 
0.0730856 0.1583 0.0520671 0 0 0 
0.0733227 0.158175 0.0526356 0 0 0 
0.0239573 0.159968 0.00382866 0 0 0 
0.0239574 0.159619 0.00478697 0 0 0 
0.0240166 0.159327 0.00564796 0 0 0 
0.0241355 0.159089 0.00641101 0 0 0 
0.0243135 0.158907 0.00707674 0 0 0 
0.02461 0.158837 0.00754762 0 0 0 
0.0249661 0.158821 0.00792049 0 0 0 
0.0253219 0.158807 0.00829378 0 0 0 
0.0256777 0.158792 0.008667 0 0 0 
0.0260929 0.158833 0.00894262 0 0 0 
0.0265081 0.158873 0.00921824 0 0 0 
0.0269232 0.158914 0.00949387 0 0 0 
0.0273384 0.158955 0.00976949 0 0 0 
0.0277536 0.158996 0.0100451 0 0 0 
0.0282281 0.159092 0.0102231 0 0 0 
0.0286433 0.159132 0.0104988 0 0 0 
0.0291179 0.159228 0.0106767 0 0 0 
0.0295922 0.159325 0.0108551 0 0 0 
0.0300073 0.159366 0.0111307 0 0 0 
0.0304225 0.159407 0.0114063 0 0 0 
0.0309565 0.159558 0.0114867 0 0 0 
0.031431 0.159654 0.0116647 0 0 0 
0.0319647 0.159806 0.0117454 0 0 0 
0.0323798 0.159847 0.012021 0 0 0 
0.0329138 0.159999 0.0121014 0 0 0 
0.0334474 0.160151 0.0121822 0 0 0 
0.033922 0.160247 0.0123601 0 0 0 
0.0344556 0.160399 0.0124409 0 0 0 
0.0350486 0.160607 0.012424 0 0 0 
0.0355825 0.160758 0.0125044 0 0 0 
0.0361755 0.160966 0.0124875 0 0 0 
0.0367685 0.161174 0.0124706 0 0 0 
0.0373025 0.161325 0.012551 0 0 0 
0.0378955 0.161533 0.0125341 0 0 0 
0.0384886 0.161741 0.0125171 0 0 0 
0.0390225 0.161892 0.0125976 0 0 0 
0.0397339 0.162211 0.0123857 0 0 0 
0.0403269 0.162419 0.0123689 0 0 0 
0.0410387 0.162737 0.0121567 0 0 0 
0.0417505 0.163056 0.0119446 0 0 0 
0.0425213 0.163431 0.0116352 0 0 0 
0.0434109 0.163916 0.0111305 0 0 0 
0.0444189 0.164513 0.010431 0 0 0 
0.0454864 0.165166 0.00963375 0 0 0 
0.0464944 0.165763 0.00893424 0 0 0 
0.04774 0.166581 0.00784414 0 0 0 
0.0663059 0.164467 0.0309838 0 0 0 
0.0665432 0.16434 0.031552 0 0 0 
0.0660689 0.163547 0.0332905 0 0 0 
0.0660097 0.163143 0.0343464 0 0 0 
0.0660098 0.162794 0.0353047 0 0 0 
0.0661284 0.162557 0.0360681 0 0 0 
0.0662474 0.162319 0.0368311 0 0 0 
0.0664253 0.162137 0.0374969 0 0 0 
0.0664846 0.161845 0.0383579 0 0 0 
0.0666035 0.161607 0.0391209 0 0 0 
0.0667221 0.16137 0.0398843 0 0 0 
0.0669001 0.161188 0.0405501 0 0 0 
0.067019 0.16095 0.0413131 0 0 0 
0.067197 0.160768 0.0419788 0 0 0 
0.0673749 0.160587 0.0426446 0 0 0 
0.0675529 0.160405 0.0433104 0 0 0 
0.0677309 0.160223 0.0439762 0 0 0 
0.0679089 0.160042 0.0446419 0 0 0 
0.0680868 0.15986 0.0453077 0 0 0 
0.0682054 0.159623 0.0460711 0 0 0 
0.0684428 0.159497 0.0466392 0 0 0 
0.0686208 0.159315 0.047305 0 0 0 
0.0687988 0.159133 0.0479708 0 0 0 
0.0689177 0.158895 0.0487338 0 0 0 
0.069155 0.158769 0.0493019 0 0 0 
0.069333 0.158587 0.0499677 0 0 0 
0.0695704 0.158461 0.0505358 0 0 0 
0.0697483 0.158279 0.0512016 0 0 0 
0.0701042 0.158265 0.0515748 0 0 0 
0.07046 0.15825 0.051948 0 0 0 
0.0708752 0.158291 0.0522237 0 0 0 
0.0714091 0.158442 0.0523041 0 0 0 
0.0718834 0.158539 0.0524824 0 0 0 
0.0724173 0.15869 0.0525628 0 0 0 
0.0728919 0.158786 0.0527408 0 0 0 
0.0731883 0.158716 0.0532117 0 0 0 
0.0838613 0.168378 0.0366151 0 0 0 
0.0230494 0.160142 0.00471699 0 0 0 
0.023168 0.159905 0.00548038 0 0 0 
0.0232276 0.159611 0.00634103 0 0 0 
0.0233465 0.159374 0.007104 0 0 0 
0.0235839 0.159247 0.00767214 0 0 0 
0.0239397 0.159232 0.00804543 0 0 0 
0.0242364 0.159162 0.00851589 0 0 0 
0.0246516 0.159202 0.00879151 0 0 0 
0.0250668 0.159243 0.00906714 0 0 0 
0.025482 0.159284 0.00934276 0 0 0 
0.0258381 0.159268 0.00971571 0 0 0 
0.0262533 0.159309 0.00999133 0 0 0 
0.0267275 0.159406 0.0101696 0 0 0 
0.0271427 0.159446 0.0104452 0 0 0 
0.0275579 0.159487 0.0107209 0 0 0 
0.0280324 0.159583 0.0108989 0 0 0 
0.0284476 0.159624 0.0111745 0 0 0 
0.0289219 0.159721 0.0113529 0 0 0 
0.0293965 0.159817 0.0115308 0 0 0 
0.029871 0.159913 0.0117089 0 0 0 
0.0303452 0.16001 0.0118872 0 0 0 
0.0308198 0.160106 0.0120652 0 0 0 
0.0312944 0.160202 0.0122432 0 0 0 
0.031828 0.160354 0.0123239 0 0 0 
0.0323026 0.16045 0.012502 0 0 0 
0.0328362 0.160603 0.0125827 0 0 0 
0.0333698 0.160755 0.0126634 0 0 0 
0.0338444 0.160851 0.0128414 0 0 0 
0.0344374 0.161059 0.0128245 0 0 0 
0.034971 0.161211 0.0129053 0 0 0 
0.035564 0.161419 0.0128883 0 0 0 
0.036157 0.161626 0.0128714 0 0 0 
0.03675 0.161834 0.0128545 0 0 0 
0.037343 0.162042 0.0128377 0 0 0 
0.037936 0.162249 0.0128208 0 0 0 
0.03847 0.162401 0.0129011 0 0 0 
0.0391814 0.16272 0.0126894 0 0 0 
0.0397744 0.162928 0.0126725 0 0 0 
0.0404265 0.163192 0.0125583 0 0 0 
0.0411973 0.163567 0.0122489 0 0 0 
0.0419091 0.163885 0.0120368 0 0 0 
0.0427983 0.164371 0.0115325 0 0 0 
0.043747 0.164913 0.0109305 0 0 0 
0.0448141 0.165566 0.0101338 0 0 0 
0.0458812 0.16622 0.00933693 0 0 0 
0.0471264 0.167039 0.00824724 0 0 0 
0.0665835 0.165405 0.0308804 0 0 0 
0.0665247 0.165001 0.0319359 0 0 0 
0.0664654 0.164596 0.0329918 0 0 0 
0.0662881 0.16408 0.0342423 0 0 0 
0.0661104 0.163564 0.0354931 0 0 0 
0.0661109 0.163215 0.036451 0 0 0 
0.0662889 0.163033 0.0371168 0 0 0 
0.0664078 0.162795 0.0378798 0 0 0 
0.0664673 0.162502 0.0387405 0 0 0 
0.0666453 0.16232 0.0394063 0 0 0 
0.0667048 0.162027 0.0402669 0 0 0 
0.0668238 0.161789 0.0410299 0 0 0 
0.0670017 0.161607 0.0416957 0 0 0 
0.0671207 0.161369 0.0424587 0 0 0 
0.067358 0.161243 0.0430268 0 0 0 
0.067477 0.161005 0.0437898 0 0 0 
0.0675955 0.160768 0.0445532 0 0 0 
0.0677739 0.160585 0.0452186 0 0 0 
0.0679518 0.160403 0.0458844 0 0 0 
0.0681298 0.160222 0.0465502 0 0 0 
0.0682487 0.159984 0.0473132 0 0 0 
0.0684267 0.159802 0.0479789 0 0 0 
0.0685456 0.159564 0.048742 0 0 0 
0.068783 0.159438 0.0493101 0 0 0 
0.0689613 0.159255 0.0499755 0 0 0 
0.0691393 0.159074 0.0506413 0 0 0 
0.0693766 0.158947 0.0512094 0 0 0 
0.0695546 0.158766 0.0518752 0 0 0 
0.0699107 0.15875 0.0522481 0 0 0 
0.0703259 0.158791 0.0525237 0 0 0 
0.0707411 0.158831 0.0527994 0 0 0 
0.0712154 0.158928 0.0529776 0 0 0 
0.0717493 0.15908 0.0530581 0 0 0 
0.0722829 0.159232 0.0531388 0 0 0 
0.0727575 0.159328 0.0533168 0 0 0 
0.0729948 0.159202 0.0538849 0 0 0 
0.083664 0.168874 0.0372926 0 0 0 
0.0841383 0.168971 0.037471 0 0 0 
0.0223195 0.160483 0.00531273 0 0 0 
0.0224384 0.160245 0.00607578 0 0 0 
0.0224389 0.159895 0.00703368 0 0 0 
0.0226762 0.159769 0.00760181 0 0 0 
0.0229139 0.159642 0.0081696 0 0 0 
0.0232103 0.159572 0.00864048 0 0 0 
0.0235664 0.159556 0.00901336 0 0 0 
0.0239816 0.159597 0.00928898 0 0 0 
0.0243375 0.159582 0.00966219 0 0 0 
0.024812 0.159678 0.00984022 0 0 0 
0.0252272 0.159719 0.0101158 0 0 0 
0.0256424 0.15976 0.0103915 0 0 0 
0.0260575 0.1598 0.0106671 0 0 0 
0.0264727 0.159841 0.0109427 0 0 0 
0.026947 0.159938 0.0111211 0 0 0 
0.0273621 0.159979 0.0113967 0 0 0 
0.0278367 0.160075 0.0115747 0 0 0 
0.0283113 0.160171 0.0117527 0 0 0 
0.0287855 0.160268 0.0119311 0 0 0 
0.0292601 0.160364 0.012109 0 0 0 
0.0297343 0.160461 0.0122874 0 0 0 
0.0302089 0.160557 0.0124654 0 0 0 
0.0307425 0.160709 0.0125461 0 0 0 
0.0312171 0.160805 0.0127241 0 0 0 
0.0317507 0.160957 0.0128048 0 0 0 
0.0322844 0.16111 0.0128856 0 0 0 
0.0327589 0.161206 0.0130636 0 0 0 
0.0332925 0.161358 0.0131443 0 0 0 
0.0338261 0.16151 0.0132251 0 0 0 
0.0344191 0.161718 0.0132082 0 0 0 
0.0350121 0.161926 0.0131913 0 0 0 
0.0355458 0.162078 0.013272 0 0 0 
0.0361978 0.162342 0.0131579 0 0 0 
0.0367315 0.162494 0.0132386 0 0 0 
0.0373245 0.162702 0.0132217 0 0 0 
0.0379765 0.162966 0.0131075 0 0 0 
0.0385695 0.163174 0.0130906 0 0 0 
0.0392219 0.163437 0.0129761 0 0 0 
0.039874 0.163701 0.0128619 0 0 0 
0.0405855 0.16402 0.0126501 0 0 0 
0.041356 0.164396 0.0123411 0 0 0 
0.0421268 0.16477 0.0120317 0 0 0 
0.0432529 0.16548 0.0111376 0 0 0 
0.0442012 0.166022 0.0105361 0 0 0 
0.0452683 0.166676 0.00973927 0 0 0 
0.0464536 0.167442 0.00874786 0 0 0 
0.0666242 0.165773 0.0321254 0 0 0 
0.0665656 0.165368 0.0331806 0 0 0 
0.0665067 0.164963 0.0342362 0 0 0 
0.0665072 0.164613 0.035194 0 0 0 
0.066152 0.163929 0.036737 0 0 0 
0.0663303 0.163747 0.0374024 0 0 0 
0.0663899 0.163454 0.0382631 0 0 0 
0.0665088 0.163216 0.0390261 0 0 0 
0.0665687 0.162921 0.0398864 0 0 0 
0.0666876 0.162683 0.0406494 0 0 0 
0.0668065 0.162445 0.0414125 0 0 0 
0.0669254 0.162207 0.0421755 0 0 0 
0.0670444 0.16197 0.0429385 0 0 0 
0.0672817 0.161843 0.0435066 0 0 0 
0.0673416 0.161549 0.0443669 0 0 0 
0.0674605 0.161311 0.04513 0 0 0 
0.0676385 0.161129 0.0457957 0 0 0 
0.0678168 0.160947 0.0464612 0 0 0 
0.0679357 0.160709 0.0472241 0 0 0 
0.0681731 0.160583 0.0477923 0 0 0 
0.068292 0.160345 0.0485553 0 0 0 
0.0684112 0.160106 0.049318 0 0 0 
0.0685302 0.159868 0.050081 0 0 0 
0.0687675 0.159742 0.0506491 0 0 0 
0.0689455 0.15956 0.0513149 0 0 0 
0.0691238 0.159377 0.0519803 0 0 0 
0.0694205 0.159306 0.0524509 0 0 0 
0.0697763 0.159292 0.0528241 0 0 0 
0.0701325 0.159276 0.0531969 0 0 0 
0.0706067 0.159373 0.0533753 0 0 0 
0.0711407 0.159524 0.0534557 0 0 0 
0.0716149 0.159621 0.053634 0 0 0 
0.0722079 0.159829 0.0536172 0 0 0 
0.0726231 0.15987 0.0538928 0 0 0 
0.0729199 0.159799 0.0543632 0 0 0 
0.0834663 0.169371 0.0379706 0 0 0 
0.0838815 0.169412 0.0382462 0 0 0 
0.0215307 0.160767 0.00600538 0 0 0 
0.021709 0.160584 0.00667084 0 0 0 
0.0217095 0.160235 0.00762873 0 0 0 
0.0218878 0.160052 0.00829411 0 0 0 
0.0221255 0.159925 0.00886191 0 0 0 
0.0225407 0.159965 0.00913753 0 0 0 
0.0228965 0.159951 0.00951082 0 0 0 
0.0233116 0.159991 0.00978644 0 0 0 
0.0237268 0.160032 0.0100621 0 0 0 
0.024142 0.160073 0.0103377 0 0 0 
0.0245572 0.160113 0.0106133 0 0 0 
0.0249724 0.160154 0.0108889 0 0 0 
0.0253876 0.160195 0.0111646 0 0 0 
0.0258622 0.160291 0.0113425 0 0 0 
0.0262773 0.160332 0.0116181 0 0 0 
0.0267516 0.160429 0.0117965 0 0 0 
0.0272261 0.160525 0.0119745 0 0 0 
0.0277004 0.160622 0.0121528 0 0 0 
0.0281749 0.160718 0.0123309 0 0 0 
0.0286492 0.160815 0.0125092 0 0 0 
0.0291238 0.160911 0.0126872 0 0 0 
0.029598 0.161008 0.0128655 0 0 0 
0.0301316 0.16116 0.0129463 0 0 0 
0.0306062 0.161256 0.0131243 0 0 0 
0.0311398 0.161408 0.013205 0 0 0 
0.0316734 0.161561 0.0132858 0 0 0 
0.0322071 0.161713 0.0133665 0 0 0 
0.0326816 0.161809 0.0135445 0 0 0 
0.0332152 0.161961 0.0136252 0 0 0 
0.0338079 0.16217 0.0136087 0 0 0 
0.0344009 0.162378 0.0135918 0 0 0 
0.0349936 0.162586 0.0135752 0 0 0 
0.0355866 0.162794 0.0135584 0 0 0 
0.0361793 0.163002 0.0135419 0 0 0 
0.0367723 0.16321 0.0135249 0 0 0 
0.0374244 0.163474 0.0134108 0 0 0 
0.0380174 0.163682 0.0133939 0 0 0 
0.0386101 0.16389 0.0133773 0 0 0 
0.0393215 0.16421 0.0131656 0 0 0 
0.040092 0.164585 0.0128565 0 0 0 
0.040744 0.164849 0.0127424 0 0 0 
0.0414552 0.165169 0.0125309 0 0 0 
0.0426998 0.16599 0.011442 0 0 0 
0.0435887 0.166478 0.010938 0 0 0 
0.0444776 0.166965 0.0104341 0 0 0 
0.0458403 0.167899 0.00915062 0 0 0 
0.0670208 0.166474 0.0327851 0 0 0 
0.0665476 0.165678 0.0345225 0 0 0 
0.0666668 0.165439 0.0352852 0 0 0 
0.0664895 0.164923 0.0365356 0 0 0 
0.0663718 0.164461 0.0376881 0 0 0 
0.0663723 0.164111 0.038646 0 0 0 
0.0665506 0.163929 0.0393114 0 0 0 
0.0666105 0.163634 0.0401717 0 0 0 
0.0666704 0.16334 0.041032 0 0 0 
0.0667893 0.163102 0.041795 0 0 0 
0.0667901 0.162752 0.0427526 0 0 0 
0.0670274 0.162625 0.0433207 0 0 0 
0.0670873 0.162331 0.044181 0 0 0 
0.0672656 0.162149 0.0448464 0 0 0 
0.0673845 0.161911 0.0456094 0 0 0 
0.0675628 0.161728 0.0462748 0 0 0 
0.0676227 0.161434 0.0471351 0 0 0 
0.067801 0.161251 0.0478005 0 0 0 
0.0679793 0.161069 0.0484659 0 0 0 
0.0680982 0.160831 0.0492289 0 0 0 
0.0682175 0.160592 0.0499916 0 0 0 
0.0684548 0.160466 0.0505597 0 0 0 
0.0685741 0.160227 0.0513224 0 0 0 
0.0687521 0.160045 0.0519881 0 0 0 
0.0689304 0.159863 0.0526535 0 0 0 
0.0692865 0.159847 0.0530265 0 0 0 
0.0695832 0.159776 0.0534969 0 0 0 
0.0699984 0.159817 0.0537726 0 0 0 
0.0704727 0.159914 0.0539509 0 0 0 
0.0710063 0.160066 0.0540316 0 0 0 
0.0715399 0.160218 0.0541124 0 0 0 
0.0720735 0.160371 0.0541931 0 0 0 
0.0724297 0.160355 0.054566 0 0 0 
0.0828541 0.169825 0.0383722 0 0 0 
0.0833284 0.169922 0.0385505 0 0 0 
0.0836845 0.169907 0.0389234 0 0 0 
0.0842181 0.170059 0.0390042 0 0 0 
0.0208608 0.161161 0.00650284 0 0 0 
0.0209797 0.160923 0.00726589 0 0 0 
0.0210989 0.160685 0.00802853 0 0 0 
0.0211588 0.16039 0.00888883 0 0 0 
0.0213965 0.160263 0.00945662 0 0 0 
0.0218117 0.160304 0.00973224 0 0 0 
0.0221678 0.160288 0.0101051 0 0 0 
0.022583 0.160329 0.0103807 0 0 0 
0.0229982 0.16037 0.0106564 0 0 0 
0.0234724 0.160467 0.0108347 0 0 0 
0.0238876 0.160507 0.0111104 0 0 0 
0.0243028 0.160548 0.011386 0 0 0 
0.024777 0.160645 0.0115643 0 0 0 
0.0252516 0.160741 0.0117423 0 0 0 
0.0256668 0.160782 0.0120179 0 0 0 
0.026141 0.160879 0.0121963 0 0 0 
0.0266155 0.160975 0.0123743 0 0 0 
0.0270898 0.161072 0.0125526 0 0 0 
0.0275644 0.161168 0.0127306 0 0 0 
0.0280386 0.161265 0.012909 0 0 0 
0.0285132 0.161361 0.013087 0 0 0 
0.0290465 0.161514 0.0131681 0 0 0 
0.029521 0.16161 0.0133461 0 0 0 
0.0300547 0.161762 0.0134268 0 0 0 
0.0305289 0.161859 0.0136052 0 0 0 
0.0310625 0.162011 0.0136859 0 0 0 
0.0315962 0.162164 0.0137666 0 0 0 
0.0321298 0.162316 0.0138474 0 0 0 
0.0326634 0.162468 0.0139281 0 0 0 
0.0332561 0.162677 0.0139115 0 0 0 
0.0338491 0.162885 0.0138947 0 0 0 
0.0344417 0.163093 0.0138782 0 0 0 
0.0350344 0.163302 0.0138616 0 0 0 
0.0356274 0.163509 0.0138447 0 0 0 
0.0362201 0.163718 0.0138282 0 0 0 
0.0368722 0.163982 0.0137141 0 0 0 
0.0374649 0.164191 0.0136975 0 0 0 
0.0379985 0.164343 0.0137782 0 0 0 
0.038769 0.164718 0.0134692 0 0 0 
0.0394208 0.164983 0.0133554 0 0 0 
0.0402506 0.165414 0.0129487 0 0 0 
0.0409617 0.165734 0.0127373 0 0 0 
0.0421466 0.166501 0.0117463 0 0 0 
0.0429168 0.166878 0.0114376 0 0 0 
0.0439242 0.167476 0.0107388 0 0 0 
0.0451681 0.168299 0.00965056 0 0 0 
0.0668261 0.166267 0.0353767 0 0 0 
0.0667675 0.165861 0.0364318 0 0 0 
0.0667683 0.16551 0.0373894 0 0 0 
0.0665323 0.164937 0.0387367 0 0 0 
0.0665924 0.164642 0.0395967 0 0 0 
0.0665929 0.164292 0.0405546 0 0 0 
0.0667121 0.164053 0.0413173 0 0 0 
0.0667129 0.163703 0.0422748 0 0 0 
0.0668322 0.163464 0.0430375 0 0 0 
0.0670105 0.163281 0.0437028 0 0 0 
0.0670113 0.162931 0.0446604 0 0 0 
0.0671896 0.162748 0.0453259 0 0 0 
0.0672495 0.162454 0.0461861 0 0 0 
0.0673687 0.162215 0.0469488 0 0 0 
0.067547 0.162033 0.0476142 0 0 0 
0.0676663 0.161794 0.0483769 0 0 0 
0.0677855 0.161555 0.0491395 0 0 0 
0.0679048 0.161316 0.0499022 0 0 0 
0.0680831 0.161134 0.0505675 0 0 0 
0.068202 0.160896 0.0513306 0 0 0 
0.0683806 0.160712 0.0519956 0 0 0 
0.0685589 0.16053 0.0526611 0 0 0 
0.0687966 0.160403 0.0532288 0 0 0 
0.0691525 0.160388 0.053602 0 0 0 
0.0694492 0.160317 0.0540726 0 0 0 
0.0698644 0.160358 0.0543482 0 0 0 
0.0703389 0.160454 0.0545262 0 0 0 
0.0708726 0.160606 0.0546069 0 0 0 
0.0714652 0.160815 0.0545904 0 0 0 
0.0719988 0.160967 0.0546711 0 0 0 
0.0722956 0.160896 0.0551417 0 0 0 
0.0825384 0.17021 0.0392446 0 0 0 
0.0831314 0.170417 0.0392278 0 0 0 
0.0835466 0.170458 0.0395034 0 0 0 
0.0839023 0.170443 0.0398767 0 0 0 
0.0201908 0.161556 0.0070003 0 0 0 
0.0202507 0.161262 0.00786053 0 0 0 
0.0203109 0.160967 0.00872049 0 0 0 
0.0204895 0.160783 0.00938553 0 0 0 
0.0207268 0.160657 0.00995367 0 0 0 
0.021083 0.160641 0.0103265 0 0 0 
0.0214982 0.160682 0.0106022 0 0 0 
0.0219133 0.160723 0.0108778 0 0 0 
0.0222695 0.160707 0.0112507 0 0 0 
0.0227437 0.160804 0.011429 0 0 0 
0.0232179 0.160901 0.0116074 0 0 0 
0.0236331 0.160942 0.011883 0 0 0 
0.0240483 0.160982 0.0121586 0 0 0 
0.0245229 0.161078 0.0123367 0 0 0 
0.0250565 0.161231 0.0124174 0 0 0 
0.0254717 0.161271 0.012693 0 0 0 
0.0259459 0.161368 0.0128714 0 0 0 
0.0264796 0.161521 0.0129521 0 0 0 
0.0269538 0.161618 0.0131304 0 0 0 
0.027428 0.161715 0.0133088 0 0 0 
0.0279026 0.161811 0.0134868 0 0 0 
0.0284362 0.161963 0.0135675 0 0 0 
0.0289104 0.16206 0.0137459 0 0 0 
0.0294441 0.162212 0.0138266 0 0 0 
0.0299774 0.162365 0.0139077 0 0 0 
0.030452 0.162461 0.0140857 0 0 0 
0.0310446 0.16267 0.0140692 0 0 0 
0.0315782 0.162822 0.0141499 0 0 0 
0.0321116 0.162976 0.014231 0 0 0 
0.0327046 0.163183 0.0142141 0 0 0 
0.0332972 0.163392 0.0141976 0 0 0 
0.0338899 0.1636 0.0141811 0 0 0 
0.0344235 0.163753 0.0142618 0 0 0 
0.0350753 0.164017 0.014148 0 0 0 
0.035668 0.164226 0.0141314 0 0 0 
0.0362607 0.164435 0.0141149 0 0 0 
0.0369127 0.164699 0.0140007 0 0 0 
0.0375054 0.164907 0.0139842 0 0 0 
0.0381575 0.165171 0.0138701 0 0 0 
0.0388686 0.165491 0.0136587 0 0 0 
0.0396388 0.165868 0.0133499 0 0 0 
0.0405274 0.166356 0.0128464 0 0 0 
0.041416 0.166844 0.0123428 0 0 0 
0.042423 0.167443 0.0116444 0 0 0 
0.0436076 0.168211 0.0106538 0 0 0 
0.0444962 0.168699 0.0101501 0 0 0 
0.0670455 0.166799 0.0363281 0 0 0 
0.0669279 0.166337 0.0374806 0 0 0 
0.0668106 0.165874 0.0386326 0 0 0 
0.0666339 0.165356 0.0398823 0 0 0 
0.0667532 0.165117 0.040645 0 0 0 
0.0668133 0.164822 0.0415049 0 0 0 
0.0667551 0.164415 0.0425597 0 0 0 
0.0668744 0.164176 0.0433224 0 0 0 
0.0669342 0.163882 0.0441827 0 0 0 
0.0670538 0.163642 0.0449449 0 0 0 
0.0670546 0.163292 0.0459025 0 0 0 
0.0671738 0.163053 0.0466652 0 0 0 
0.067234 0.162758 0.0475251 0 0 0 
0.0674123 0.162575 0.0481906 0 0 0 
0.0675909 0.162392 0.0488556 0 0 0 
0.0675918 0.162041 0.0498131 0 0 0 
0.0677704 0.161858 0.0504782 0 0 0 
0.0679487 0.161675 0.0511436 0 0 0 
0.068068 0.161437 0.0519062 0 0 0 
0.0682466 0.161253 0.0525712 0 0 0 
0.0683658 0.161014 0.053334 0 0 0 
0.0686626 0.160943 0.0538044 0 0 0 
0.0689593 0.160872 0.054275 0 0 0 
0.0693745 0.160913 0.0545506 0 0 0 
0.0697897 0.160954 0.0548262 0 0 0 
0.0702642 0.16105 0.0550042 0 0 0 
0.0707976 0.161203 0.0550853 0 0 0 
0.0713312 0.161355 0.055166 0 0 0 
0.0718648 0.161508 0.0552468 0 0 0 
0.0721616 0.161437 0.0557172 0 0 0 
0.0822823 0.170648 0.0400192 0 0 0 
0.082875 0.170857 0.0400026 0 0 0 
0.0833495 0.170953 0.0401807 0 0 0 
0.0837053 0.170938 0.0405539 0 0 0 
0.0194585 0.161904 0.0075984 0 0 0 
0.0196372 0.161721 0.00826344 0 0 0 
0.0196383 0.161369 0.00922065 0 0 0 
0.0198166 0.161187 0.00988604 0 0 0 
0.0200543 0.16106 0.0104538 0 0 0 
0.0203514 0.160988 0.010924 0 0 0 
0.0207665 0.161029 0.0111996 0 0 0 
0.0211817 0.161069 0.0114752 0 0 0 
0.0215969 0.16111 0.0117508 0 0 0 
0.0220711 0.161207 0.0119292 0 0 0 
0.0225454 0.161304 0.0121076 0 0 0 
0.0229606 0.161344 0.0123832 0 0 0 
0.0234351 0.16144 0.0125612 0 0 0 
0.0238503 0.161481 0.0128368 0 0 0 
0.0243836 0.161634 0.0129179 0 0 0 
0.0248582 0.16173 0.0130959 0 0 0 
0.0253324 0.161827 0.0132743 0 0 0 
0.0258067 0.161924 0.0134526 0 0 0 
0.0263403 0.162077 0.0135334 0 0 0 
0.0268145 0.162174 0.0137117 0 0 0 
0.0273481 0.162326 0.0137924 0 0 0 
0.0278224 0.162423 0.0139708 0 0 0 
0.0282966 0.16252 0.0141492 0 0 0 
0.0288302 0.162672 0.0142299 0 0 0 
0.0294229 0.162881 0.0142133 0 0 0 
0.0298972 0.162978 0.0143917 0 0 0 
0.0304899 0.163186 0.0143752 0 0 0 
0.0310234 0.163338 0.0144559 0 0 0 
0.0315568 0.163492 0.014537 0 0 0 
0.0320904 0.163644 0.0146178 0 0 0 
0.0327421 0.163909 0.014504 0 0 0 
0.0333348 0.164117 0.0144874 0 0 0 
0.0338684 0.16427 0.0145681 0 0 0 
0.0345202 0.164534 0.0144543 0 0 0 
0.0351128 0.164743 0.0144378 0 0 0 
0.0357055 0.164952 0.0144213 0 0 0 
0.0362982 0.16516 0.0144048 0 0 0 
0.0369499 0.165425 0.014291 0 0 0 
0.0375426 0.165634 0.0142744 0 0 0 
0.0383128 0.16601 0.0139658 0 0 0 
0.0390827 0.166387 0.0136574 0 0 0 
0.0398529 0.166764 0.0133487 0 0 0 
0.0408596 0.167364 0.0126506 0 0 0 
0.0418663 0.167965 0.0119525 0 0 0 
0.0429324 0.168621 0.0111568 0 0 0 
0.0441757 0.169446 0.0100693 0 0 0 
0.0668485 0.166599 0.0389221 0 0 0 
0.0667906 0.166191 0.0399765 0 0 0 
0.0667917 0.16584 0.0409337 0 0 0 
0.0667334 0.165433 0.0419885 0 0 0 
0.0667936 0.165138 0.0428485 0 0 0 
0.0668542 0.164842 0.043708 0 0 0 
0.0669143 0.164547 0.044568 0 0 0 
0.0669745 0.164252 0.0454279 0 0 0 
0.0669757 0.163901 0.0463851 0 0 0 
0.0670949 0.163662 0.0471477 0 0 0 
0.0671551 0.163367 0.0480077 0 0 0 
0.0672747 0.163127 0.04877 0 0 0 
0.067394 0.162888 0.0495326 0 0 0 
0.0674544 0.162592 0.0503922 0 0 0 
0.0676327 0.16241 0.0510576 0 0 0 
0.0677523 0.16217 0.0518199 0 0 0 
0.067931 0.161986 0.0524849 0 0 0 
0.0681093 0.161804 0.0531503 0 0 0 
0.0682288 0.161564 0.0539127 0 0 0 
0.0684665 0.161437 0.0544804 0 0 0 
0.0688226 0.161421 0.0548534 0 0 0 
0.0692378 0.161462 0.055129 0 0 0 
0.069653 0.161503 0.0554046 0 0 0 
0.0701863 0.161656 0.0554856 0 0 0 
0.070779 0.161865 0.0554691 0 0 0 
0.0713126 0.162017 0.0555499 0 0 0 
0.0717868 0.162114 0.0557283 0 0 0 
0.0720246 0.161987 0.056296 0 0 0 
0.0820823 0.171153 0.0406995 0 0 0 
0.0826156 0.171306 0.0407806 0 0 0 
0.0832083 0.171514 0.0407641 0 0 0 
0.0835644 0.171499 0.0411369 0 0 0 
0.0840977 0.171652 0.0412181 0 0 0 
0.0189643 0.162124 0.00876395 0 0 0 
0.0190838 0.161885 0.00952632 0 0 0 
0.0191443 0.161589 0.0103859 0 0 0 
0.019382 0.161462 0.0109536 0 0 0 
0.0196791 0.16139 0.0114238 0 0 0 
0.0200943 0.16143 0.0116994 0 0 0 
0.0205095 0.161471 0.011975 0 0 0 
0.0209246 0.161512 0.0122506 0 0 0 
0.0213398 0.161552 0.0125263 0 0 0 
0.0218141 0.161649 0.0127046 0 0 0 
0.0222292 0.16169 0.0129803 0 0 0 
0.0227035 0.161787 0.0131586 0 0 0 
0.0231777 0.161884 0.013337 0 0 0 
0.0237113 0.162036 0.0134177 0 0 0 
0.0241856 0.162133 0.0135961 0 0 0 
0.0246598 0.16223 0.0137744 0 0 0 
0.0251934 0.162382 0.0138551 0 0 0 
0.0256677 0.162479 0.0140335 0 0 0 
0.026201 0.162633 0.0141146 0 0 0 
0.0267346 0.162785 0.0141953 0 0 0 
0.0272088 0.162882 0.0143737 0 0 0 
0.0277422 0.163035 0.0144548 0 0 0 
0.0282758 0.163187 0.0145355 0 0 0 
0.0288091 0.163341 0.0146166 0 0 0 
0.0293427 0.163493 0.0146974 0 0 0 
0.029876 0.163646 0.0147784 0 0 0 
0.0304096 0.163798 0.0148592 0 0 0 
0.031002 0.164008 0.014843 0 0 0 
0.0315947 0.164216 0.0148264 0 0 0 
0.0321283 0.164369 0.0149072 0 0 0 
0.0327797 0.164634 0.0147938 0 0 0 
0.0333133 0.164787 0.0148745 0 0 0 
0.033906 0.164995 0.014858 0 0 0 
0.0345574 0.165261 0.0147445 0 0 0 
0.0351501 0.16547 0.014728 0 0 0 
0.0358018 0.165734 0.0146142 0 0 0 
0.0363354 0.165887 0.014695 0 0 0 
0.0370462 0.166208 0.0144838 0 0 0 
0.037698 0.166473 0.0143701 0 0 0 
0.0384678 0.16685 0.0140618 0 0 0 
0.0392971 0.167283 0.0136558 0 0 0 
0.0403625 0.16794 0.0128608 0 0 0 
0.041428 0.168598 0.0120658 0 0 0 
0.0423756 0.169142 0.011465 0 0 0 
0.0435592 0.169912 0.0104754 0 0 0 
0.0668878 0.166971 0.0401684 0 0 0 
0.0668299 0.166564 0.0412228 0 0 0 
0.0668314 0.166211 0.0421796 0 0 0 
0.0668325 0.16586 0.0431368 0 0 0 
0.0668336 0.165509 0.0440941 0 0 0 
0.0669532 0.165269 0.0448564 0 0 0 
0.0668362 0.164805 0.0460081 0 0 0 
0.0669558 0.164566 0.0467704 0 0 0 
0.0670163 0.16427 0.04763 0 0 0 
0.0670765 0.163975 0.0484899 0 0 0 
0.0671961 0.163735 0.0492521 0 0 0 
0.0672566 0.163439 0.0501118 0 0 0 
0.0673168 0.163144 0.0509716 0 0 0 
0.0674364 0.162904 0.0517339 0 0 0 
0.0675559 0.162664 0.0524963 0 0 0 
0.0676755 0.162425 0.0532586 0 0 0 
0.0679132 0.162297 0.0538264 0 0 0 
0.0680918 0.162114 0.0544914 0 0 0 
0.0683298 0.161986 0.0550588 0 0 0 
0.0686859 0.16197 0.0554318 0 0 0 
0.0691011 0.162011 0.0557074 0 0 0 
0.0695163 0.162052 0.055983 0 0 0 
0.0701087 0.162261 0.0559668 0 0 0 
0.0707014 0.16247 0.0559502 0 0 0 
0.071294 0.162678 0.0559337 0 0 0 
0.0716498 0.162664 0.056307 0 0 0 
0.0810531 0.171224 0.0417858 0 0 0 
0.0817639 0.171545 0.0415747 0 0 0 
0.0824156 0.17181 0.0414609 0 0 0 
0.0830083 0.172018 0.0414444 0 0 0 
0.0834235 0.172059 0.04172 0 0 0 
0.0837793 0.172044 0.0420932 0 0 0 
0.0182917 0.162527 0.00926411 0 0 0 
0.0184706 0.162343 0.00992881 0 0 0 
0.0185902 0.162103 0.0106911 0 0 0 
0.0187688 0.16192 0.0113561 0 0 0 
0.0190068 0.161792 0.0119236 0 0 0 
0.019363 0.161776 0.0122965 0 0 0 
0.0198372 0.161873 0.0124748 0 0 0 
0.0201933 0.161857 0.0128477 0 0 0 
0.0206676 0.161954 0.0130261 0 0 0 
0.0211418 0.162051 0.0132045 0 0 0 
0.021557 0.162092 0.0134801 0 0 0 
0.0220313 0.162189 0.0136584 0 0 0 
0.0225648 0.162341 0.0137391 0 0 0 
0.0230391 0.162438 0.0139175 0 0 0 
0.0235133 0.162535 0.0140959 0 0 0 
0.0240466 0.162688 0.0141769 0 0 0 
0.0245802 0.162841 0.0142577 0 0 0 
0.0250545 0.162938 0.014436 0 0 0 
0.0255878 0.163091 0.0145171 0 0 0 
0.0261211 0.163244 0.0145983 0 0 0 
0.0266547 0.163396 0.014679 0 0 0 
0.027188 0.163549 0.0147601 0 0 0 
0.0277213 0.163703 0.0148411 0 0 0 
0.0282546 0.163856 0.0149222 0 0 0 
0.0287882 0.164008 0.0150029 0 0 0 
0.0293215 0.164161 0.0150841 0 0 0 
0.0298549 0.164315 0.0151651 0 0 0 
0.0304475 0.164523 0.0151486 0 0 0 
0.0310399 0.164733 0.0151324 0 0 0 
0.0315735 0.164885 0.0152132 0 0 0 
0.0321658 0.165094 0.015197 0 0 0 
0.0328176 0.165359 0.0150832 0 0 0 
0.0333509 0.165512 0.0151643 0 0 0 
0.0340026 0.165777 0.0150505 0 0 0 
0.034595 0.165987 0.0150343 0 0 0 
0.0351873 0.166196 0.0150181 0 0 0 
0.0358391 0.166461 0.0149043 0 0 0 
0.0364908 0.166726 0.0147906 0 0 0 
0.0372013 0.167048 0.0145799 0 0 0 
0.037853 0.167312 0.0144661 0 0 0 
0.0388591 0.167915 0.0137687 0 0 0 
0.0399246 0.168572 0.0129737 0 0 0 
0.0406944 0.16895 0.0126654 0 0 0 
0.041878 0.16972 0.0116759 0 0 0 
0.0430025 0.170434 0.0107836 0 0 0 
